-4.1826,-5.2806,11.109,0.95,0.30789,0.051919
-4.1966,-5.4113,11.381,0.9488,0.31199,0.049475
-4.2602,-5.3136,11.814,0.94884,0.31562,-0.008968
-4.2474,-5.2895,12.104,0.95887,0.27942,-0.049885
-4.23,-5.3674,12.617,0.95789,0.27019,0.097142
-4.3022,-5.4021,12.983,0.95871,0.28318,0.02628
-4.2011,-5.348,13.389,0.96687,0.18055,-0.18048
-4.1771,-5.2968,13.744,0.9482,0.31602,0.03251
-4.2264,-5.401,14.134,0.95726,0.28835,0.022451
-4.2085,-5.2852,14.587,0.95658,0.29012,0.027915
-4.2999,-5.337,14.909,0.94304,0.33203,0.020785
-4.2176,-5.3443,15.274,0.96859,0.24852,-0.0084405
-4.2685,-5.2871,15.752,0.9704,0.23834,-0.03883
-4.1404,-5.3432,16.191,0.95616,0.29282,0.0039159
-4.2823,-5.2891,16.497,0.90206,0.38604,0.19306
-4.2447,-5.3297,16.858,0.92123,0.38891,-0.0096195
-4.243,-5.405,17.266,0.95896,0.26917,-0.089093
-4.175,-5.3076,17.627,0.9561,0.28958,-0.045001
-4.2019,-5.292,18.065,0.94943,0.31311,0.023206
-4.1941,-5.2923,18.544,0.9556,0.28913,0.056889
-4.2047,-5.3095,18.834,0.96073,0.2775,0.001605
-4.2577,-5.3538,19.143,0.92905,0.36848,0.033007
-4.1772,-5.3289,19.523,0.94191,0.33546,-0.016637
-4.234,-5.4143,20.011,0.9622,0.25792,0.087457
-4.0561,-5.8748,0.99561,0.95996,0.27847,0.030483
-4.0377,-5.8514,1.3083,0.96175,0.27376,0.0095222
-4.0606,-5.8857,1.6268,0.96596,0.25789,-0.020588
-4.0049,-5.852,2.1432,0.95003,0.30213,-0.078484
-4.0167,-5.9155,2.5415,0.93179,0.27952,0.23158
-4.1607,-5.8584,2.9087,0.92544,0.37722,0.035633
-4.0632,-5.8513,3.1999,0.92703,0.37161,-0.050106
-3.9802,-5.9879,3.7443,0.93893,0.33856,-0.061563
-4.0454,-5.8518,4.1005,0.92445,0.38093,0.017
-4.0477,-5.9348,4.4602,0.94763,0.31497,0.052935
-4.0398,-5.807,4.8467,0.96114,0.27284,-0.041928
-4.0427,-5.8988,5.2086,0.96246,0.24646,0.11372
-4.1028,-5.9001,5.5904,0.96808,0.24591,-0.048377
-3.9936,-5.8188,6.0831,0.96019,0.26282,-0.09469
-4.0153,-5.8837,6.4755,0.94699,0.30776,0.092203
-4.1238,-5.8626,6.7524,0.93323,0.35549,0.051969
-4.0351,-5.8749,7.1984,0.94009,0.32384,-0.10658
-4.0042,-5.9987,7.6149,0.93656,0.34478,0.06308
-4.0491,-5.9352,7.9243,0.96351,0.26284,-0.050556
-4.0335,-5.8763,8.3786,0.90159,0.42133,-0.098067
-4.0063,-5.884,8.7361,0.92255,0.38492,-0.027068
-4.0095,-5.877,9.1406,0.92177,0.38613,0.035223
-4.0768,-5.7999,9.5553,0.96269,0.27039,0.010633
-4.0005,-6.0397,9.9316,0.95105,0.30596,0.043474
-4.0186,-5.8921,10.314,0.966,0.25082,0.062737
-4.0711,-5.9861,10.589,0.96712,0.24512,0.067755
-4.0776,-5.892,11.084,0.94273,0.33103,-0.040876
-4.0165,-5.9616,11.405,0.94089,0.33704,0.033748
-4.0604,-5.9036,11.903,0.9581,0.28342,-0.041511
-4.037,-5.8356,12.27,0.95181,0.30667,-0.0017261
-4.0392,-5.917,12.618,0.95144,0.3073,0.017984
-4.0314,-5.898,13.009,0.91455,0.39862,0.068546
-4.183,-5.8292,13.367,0.94113,0.30843,-0.13837
-3.9605,-5.9282,13.858,0.90119,0.41381,-0.12895
-4.073,-5.8303,14.179,0.92312,0.37654,0.077873
-4.0654,-5.8384,14.568,0.93146,0.3614,-0.042026
-4.0263,-5.8444,15.042,0.94561,0.32528,-0.0035223
-4.0799,-5.9113,15.341,0.95533,0.29511,-0.015761
-4.0179,-5.9165,15.851,0.93795,0.3463,-0.018021
-3.9972,-5.9431,16.174,0.95772,0.26772,-0.10529
-4.0581,-5.7948,16.481,0.94947,0.27525,0.1508
-4.1073,-5.9779,16.91,0.90731,0.41471,0.069339
-4.0465,-5.933,17.254,0.94445,0.32059,-0.072356
-4.0452,-5.8481,17.637,0.96529,0.23805,-0.10749
-3.999,-5.918,18.036,0.94133,0.31698,-0.11587
-3.9792,-5.9363,18.449,0.92384,0.37347,0.08392
-4.0646,-5.8725,18.823,0.94458,0.32658,0.033356
-3.9993,-5.895,19.263,0.94474,0.32155,-0.063755
-4.0078,-5.9634,19.649,0.90656,0.42204,-0.0055426
-4.0891,-5.8274,20.057,0.91605,0.37783,0.13453
-3.8969,-6.3357,0.98823,0.92948,0.36871,-0.010753
-3.871,-6.4203,1.3543,0.92829,0.36939,0.042827
-3.9196,-6.3377,1.7831,0.92967,0.36188,-0.068962
-3.8075,-6.3306,2.1882,0.92651,0.37523,0.027873
-3.9454,-6.3847,2.5535,0.89261,0.44359,0.08043
-3.8185,-6.3778,2.9379,0.9047,0.4151,-0.095918
-3.8413,-6.494,3.3312,0.89483,0.44388,0.047532
-3.8924,-6.3915,3.7157,0.91704,0.38538,-0.10252
-3.7869,-6.3835,4.142,0.91836,0.3957,-0.0061206
-3.9377,-6.3927,4.4811,0.88397,0.45814,0.093239
-3.865,-6.4052,4.8717,0.84251,0.53867,0.0033312
-3.8902,-6.4133,5.2251,0.91983,0.3783,0.10394
-3.9351,-6.4089,5.6341,0.91612,0.39668,0.058026
-3.9375,-6.3583,6.0994,0.95974,0.27607,-0.051833
-3.912,-6.3867,6.3432,0.94327,0.32676,-0.058923
-3.8457,-6.3415,6.7601,0.93852,0.34483,0.016493
-3.8849,-6.417,7.2908,0.95636,0.28858,0.045882
-3.7877,-6.3902,7.4176,0.95632,0.28774,0.051569
-3.9167,-6.3786,8.0146,0.91874,0.39181,0.048906
-3.8031,-6.4027,8.2999,0.90274,0.40474,-0.14578
-3.7786,-6.416,8.7435,0.95385,0.30027,0.002151
-3.8105,-6.3296,9.1511,0.92403,0.38202,0.015219
-3.8214,-6.3597,9.483,0.93206,0.35352,0.079245
-3.8954,-6.4282,9.8891,0.89232,0.44278,0.087818
-3.8974,-6.4234,10.349,0.93187,0.35788,0.059499
-3.927,-6.4311,10.716,0.91119,0.40354,-0.083013
-3.8241,-6.3842,11.019,0.91087,0.41072,-0.040269
-3.8861,-6.3833,11.444,0.91911,0.36177,0.1561
-3.9434,-6.4584,11.821,0.92757,0.37256,-0.028615
-3.8843,-6.3656,12.239,0.93424,0.35361,-0.046516
-3.9299,-6.3067,12.646,0.95189,0.30625,-0.011027
-3.8433,-6.3978,13.032,0.89124,0.44954,0.060002
-3.9011,-6.4149,13.431,0.92417,0.38182,-0.010974
-3.8219,-6.3293,13.831,0.95059,0.2965,-0.092028
-3.8572,-6.3153,14.171,0.93872,0.34447,0.012219
-3.8063,-6.3387,14.505,0.92001,0.38331,0.081623
-3.9244,-6.3442,14.946,0.93079,0.35074,0.10303
-3.8759,-6.3982,15.378,0.92924,0.35402,-0.10574
-3.7711,-6.3912,15.749,0.92197,0.38626,0.027964
-3.8962,-6.4845,16.091,0.93299,0.35968,-0.012581
-3.7817,-6.3698,16.481,0.9272,0.33708,-0.16332
-3.7505,-6.4086,16.782,0.89875,0.4362,0.044423
-3.8354,-6.3812,17.336,0.85577,0.50174,0.12617
-3.9353,-6.4201,17.622,0.90506,0.42038,-0.064376
-3.7674,-6.4114,18.074,0.90051,0.43088,-0.05857
-3.7885,-6.4788,18.485,0.93134,0.35564,0.078316
-3.8618,-6.4146,18.845,0.91259,0.40855,0.016423
-3.8744,-6.3601,19.287,0.91405,0.39931,-0.071121
-3.7797,-6.3822,19.652,0.9459,0.32157,-0.043303
-3.8274,-6.294,19.913,0.9328,0.36015,0.012918
-3.6405,-6.8714,1.0168,0.88438,0.46674,0.005327
-3.6899,-6.7682,1.4529,0.88638,0.46079,0.044853
-3.6983,-6.872,1.83,0.89859,0.43265,-0.073155
-3.5785,-6.8971,2.1893,0.92921,0.34494,-0.13262
-3.6021,-6.832,2.4825,0.86991,0.49117,0.0449
-3.6496,-6.8688,2.971,0.93386,0.35038,0.071686
-3.5835,-6.8835,3.2604,0.916,0.39908,-0.041022
-3.642,-6.8631,3.7079,0.88925,0.45544,0.042495
-3.6493,-6.883,4.2153,0.94172,0.32436,-0.089142
-3.6191,-6.8066,4.4771,0.8791,0.47264,0.061572
-3.6507,-6.8111,4.8415,0.90069,0.42978,0.063672
-3.6936,-6.7549,5.2414,0.87099,0.48102,0.099952
-3.7022,-6.893,5.6952,0.82772,0.54038,0.15119
-3.6843,-6.9184,6.0512,0.90062,0.42343,-0.097962
-3.6055,-6.8975,6.413,0.89792,0.44007,0.0093284
-3.7187,-6.8493,6.7765,0.91804,0.389,-0.076694
-3.5667,-6.9176,7.1674,0.85788,0.511,-0.054101
-3.7649,-6.8518,7.4765,0.87094,0.48506,0.07864
-3.6635,-6.8801,8.0011,0.87116,0.45398,-0.18706
-3.6159,-6.808,8.3564,0.92831,0.37128,0.019807
-3.7168,-6.8736,8.7779,0.89904,0.43786,0.0022539
-3.6232,-6.8229,9.0991,0.92495,0.38009,0.0021109
-3.6895,-6.8726,9.4817,0.90856,0.41569,0.041391
-3.6658,-6.7601,9.8958,0.90718,0.41976,0.028865
-3.6682,-6.7867,10.243,0.87322,0.48699,0.018066
-3.6623,-6.8304,10.754,0.8629,0.50489,-0.022394
-3.6885,-6.8015,11.135,0.90844,0.41618,0.039059
-3.6275,-6.9145,11.406,0.90348,0.42774,0.027643
-3.6742,-6.8348,11.951,0.86795,0.49542,-0.034956
-3.7251,-6.7835,12.178,0.86803,0.45416,-0.20068
-3.5378,-6.8364,12.639,0.94675,0.31669,-0.058133
-3.5899,-6.7263,13.056,0.91225,0.37007,0.17565
-3.6495,-6.8744,13.416,0.91549,0.39473,0.077928
-3.6523,-6.8987,13.819,0.90899,0.41654,-0.014983
-3.678,-6.8547,14.107,0.90602,0.42321,0.0040292
-3.6799,-6.8586,14.691,0.91679,0.39806,0.032229
-3.6356,-6.8939,14.934,0.88863,0.45847,-0.01178
-3.6324,-6.8868,15.452,0.86087,0.50488,0.063177
-3.6044,-6.9314,15.744,0.9213,0.37303,-0.10975
-3.6574,-6.811,16.145,0.82894,0.55433,-0.074638
-3.6169,-6.9034,16.538,0.93412,0.35393,-0.046456
-3.6067,-6.9104,16.958,0.91514,0.38791,-0.10975
-3.5936,-6.7911,17.196,0.89242,0.45117,-0.0057381
-3.5928,-6.7748,17.65,0.86442,0.49877,0.063224
-3.6173,-6.8382,18.085,0.92894,0.34997,0.12077
-3.6781,-6.8654,18.435,0.91088,0.40662,0.070424
-3.638,-6.8797,18.853,0.91654,0.39758,-0.043427
-3.6485,-6.7771,19.121,0.90205,0.43149,0.010702
-3.6546,-6.872,19.628,0.91803,0.39552,0.027989
-3.6846,-6.8921,19.968,0.92842,0.371,0.019807
-3.4526,-7.2004,0.99866,0.90559,0.42329,0.026976
-3.4119,-7.2643,1.4356,0.89267,0.44983,0.028099
-3.4695,-7.2899,1.7329,0.88874,0.45632,-0.043704
-3.4583,-7.1911,2.2037,0.95637,0.29157,-0.018613
-3.467,-7.2231,2.5015,0.90686,0.40334,0.12215
-3.4977,-7.341,3.0117,0.91449,0.4046,0.002975
-3.4401,-7.3298,3.2192,0.88176,0.47031,-0.036295
-3.4575,-7.2875,3.7117,0.8635,0.50432,-0.0056576
-3.4982,-7.3219,4.1106,0.86199,0.50552,-0.03765
-3.4316,-7.2151,4.5079,0.91515,0.38759,-0.11078
-3.4246,-7.3214,4.8316,0.88871,0.45759,-0.028166
-3.42,-7.253,5.1752,0.90624,0.41686,-0.07042
-3.3263,-7.2917,5.6757,0.84876,0.523,0.078017
-3.4548,-7.3736,6.037,0.83408,0.53028,0.15204
-3.4507,-7.3303,6.4037,0.89627,0.44127,-0.044461
-3.4824,-7.2904,6.7978,0.8861,0.46321,-0.015989
-3.4764,-7.356,7.2686,0.91424,0.38027,-0.13985
-3.3719,-7.232,7.5295,0.86067,0.50891,0.015713
-3.4175,-7.3202,7.9439,0.89239,0.4477,0.056652
-3.4066,-7.311,8.4323,0.91227,0.40835,-0.031818
-3.3751,-7.3026,8.7452,0.85938,0.5089,-0.049803
-3.3901,-7.2693,9.1563,0.86834,0.49062,0.072606
-3.4377,-7.248,9.5038,0.81211,0.57805,0.079576
-3.4229,-7.3427,9.9718,0.80977,0.58544,0.039124
-3.3931,-7.3434,10.288,0.86565,0.49827,-0.048833
-3.3715,-7.2621,10.761,0.88487,0.46559,0.01533
-3.4334,-7.2709,11.039,0.87164,0.48234,0.087133
-3.459,-7.3302,11.547,0.8875,0.46075,-0.0068286
-3.4358,-7.2649,11.884,0.87724,0.47255,-0.084466
-3.4083,-7.2881,12.264,0.89094,0.45042,-0.057805
-3.467,-7.319,12.602,0.91521,0.3898,0.10218
-3.5026,-7.2661,12.981,0.95038,0.31105,0.0053705
-3.4252,-7.3585,13.419,0.92002,0.35901,-0.15705
-3.3857,-7.3122,13.795,0.85782,0.51089,-0.056039
-3.4026,-7.3029,14.183,0.8554,0.51725,0.027127
-3.4474,-7.2537,14.501,0.88662,0.46133,0.032915
-3.4054,-7.3728,15.015,0.89041,0.44334,-0.10305
-3.3104,-7.2871,15.319,0.87926,0.47606,0.01653
-3.5184,-7.2107,15.787,0.80693,0.59016,-0.024002
-3.3668,-7.1679,16.102,0.89048,0.45502,0.0019414
-3.473,-7.2753,16.538,0.87604,0.47401,0.088729
-3.4055,-7.2585,16.82,0.88196,0.45199,-0.13359
-3.3623,-7.2111,17.259,0.89776,0.44044,-0.0066048
-3.4081,-7.294,17.654,0.88647,0.45643,0.076474
-3.4259,-7.2906,18.073,0.89682,0.44035,0.042524
-3.385,-7.3448,18.517,0.90222,0.4296,0.038131
-3.4524,-7.2854,18.856,0.92333,0.38344,0.02107
-3.4492,-7.2607,19.246,0.90017,0.43441,-0.031396
-3.4442,-7.2387,19.641,0.85828,0.51294,-0.015771
-3.4424,-7.1938,20.011,0.86139,0.50777,0.013483
-3.2702,-7.6751,1.0836,0.85758,0.50867,-0.076264
-3.1544,-7.7507,1.4529,0.75847,0.65055,-0.038889
-3.264,-7.6625,1.7679,0.80183,0.56008,0.20829
-3.3428,-7.6952,2.1807,0.85694,0.51318,-0.048007
-3.225,-7.7186,2.5096,0.83797,0.54295,-0.054924
-3.253,-7.6437,2.8744,0.83731,0.54406,-0.053946
-3.14,-7.7557,3.2796,0.85622,0.51584,-0.028264
-3.2108,-7.6989,3.6898,0.83009,0.55741,-0.015308
-3.1711,-7.6482,4.0751,0.81477,0.5794,0.021111
-3.2643,-7.6207,4.4944,0.82363,0.56633,-0.030127
-3.2112,-7.6107,4.9769,0.85568,0.514,0.06018
-3.2682,-7.8049,5.2588,0.85884,0.51049,0.042312
-3.2134,-7.7144,5.5857,0.87011,0.48178,-0.10391
-3.1889,-7.705,6.01,0.81269,0.58269,0.0013189
-3.2505,-7.6804,6.4463,0.75932,0.65061,0.01182
-3.2108,-7.6927,6.6911,0.78459,0.61336,0.090623
-3.2448,-7.718,7.0759,0.82107,0.57074,0.010021
-3.2112,-7.684,7.5169,0.86787,0.49578,-0.031537
-3.2087,-7.7442,7.9676,0.8645,0.50209,-0.023404
-3.1763,-7.7505,8.3284,0.85054,0.52555,-0.019289
-3.203,-7.7539,8.7513,0.87628,0.48046,-0.035965
-3.1262,-7.7695,9.2002,0.88623,0.43764,-0.15189
-3.1283,-7.678,9.5252,0.85015,0.52647,-0.0088446
-3.1713,-7.6514,9.8513,0.82879,0.55885,0.028299
-3.1906,-7.6572,10.322,0.83418,0.54861,0.056389
-3.1968,-7.7391,10.752,0.85092,0.52315,0.047508
-3.1808,-7.8301,11.079,0.8374,0.54621,0.020545
-3.1986,-7.7657,11.472,0.80999,0.58643,-0.0037325
-3.1671,-7.7769,11.903,0.89504,0.44482,-0.032146
-3.1952,-7.6772,12.266,0.89977,0.43633,0.0052138
-3.1943,-7.7079,12.728,0.83237,0.54962,0.07119
-3.2328,-7.6704,12.972,0.83386,0.53101,0.1507
-3.3512,-7.7135,13.414,0.80949,0.57879,-0.098591
-3.2426,-7.5622,13.835,0.90733,0.39412,-0.14635
-3.1916,-7.6567,14.117,0.86877,0.49089,0.065378
-3.1859,-7.7735,14.592,0.83883,0.54274,0.042403
-3.2101,-7.7111,14.944,0.87858,0.46209,-0.12069
-3.2084,-7.6345,15.329,0.88217,0.46358,-0.082905
-3.1675,-7.7154,15.712,0.81405,0.58038,-0.021973
-3.169,-7.7019,16.122,0.87508,0.48364,0.017826
-3.1725,-7.6674,16.512,0.82139,0.5689,-0.040988
-3.232,-7.5872,16.963,0.88068,0.46771,-0.075167
-3.1681,-7.7295,17.186,0.89121,0.45141,-0.044475
-3.1408,-7.7086,17.624,0.82964,0.55577,-0.053051
-3.158,-7.6788,18.053,0.83597,0.5303,0.14121
-3.2426,-7.7483,18.427,0.85682,0.48786,0.16691
-3.2579,-7.7634,18.82,0.9107,0.41117,-0.039437
-3.1925,-7.7216,19.24,0.8642,0.50068,-0.049669
-3.1857,-7.6985,19.747,0.85526,0.50724,-0.10603
-3.1921,-7.6905,20.065,0.84386,0.50389,-0.18438
-2.9567,-8.0667,1.1748,0.81351,0.57793,-0.064842
-2.9168,-8.0455,1.3389,0.82005,0.56384,-0.097967
-2.9106,-8.0538,1.7372,0.85014,0.52655,-0.0027664
-2.8975,-8.1082,2.2244,0.83348,0.54909,0.061703
-2.9583,-8.1438,2.5931,0.78292,0.61965,0.055474
-2.9852,-8.1211,2.978,0.81142,0.58206,-0.05298
-2.9535,-8.1045,3.331,0.83743,0.54106,-0.077207
-2.9121,-8.0688,3.7063,0.83427,0.55046,-0.031402
-2.9937,-8.0036,4.0759,0.82177,0.56561,-0.06915
-2.8825,-8.0467,4.4582,0.82546,0.56446,0.0024854
-2.8908,-8.098,4.896,0.83455,0.55058,0.019628
-2.9311,-8.0956,5.3167,0.73066,0.68269,-0.0081574
-2.9778,-8.0553,5.6525,0.82761,0.56105,-0.016637
-2.9291,-8.0928,6.0302,0.81268,0.56421,-0.14564
-2.8952,-7.9821,6.4149,0.75819,0.65156,-0.024884
-2.8892,-8.1166,6.7865,0.80349,0.57777,0.14349
-2.9473,-8.0874,7.2362,0.79543,0.60594,-0.011344
-2.8814,-8.155,7.537,0.78614,0.61791,0.012933
-2.9742,-8.1322,7.8846,0.79256,0.60883,0.034278
-2.9354,-8.099,8.2811,0.80103,0.59472,-0.068264
-2.9509,-8.0658,8.7147,0.76182,0.6463,0.043883
-2.9715,-8.1609,9.1355,0.81099,0.58483,0.016556
-2.905,-8.0712,9.5397,0.84769,0.5294,-0.034023
-2.9111,-8.1687,9.9669,0.88428,0.46528,-0.039554
-2.923,-8.1,10.294,0.83701,0.54445,-0.054708
-2.8481,-8.1697,10.612,0.79431,0.60637,-0.037206
-2.9002,-8.0728,11.083,0.76218,0.64736,-0.0030829
-2.9323,-8.114,11.485,0.82702,0.55196,0.10669
-3.0006,-8.0706,11.968,0.77327,0.63322,0.032952
-2.998,-8.1593,12.227,0.88414,0.45871,-0.088773
-2.9337,-8.0767,12.577,0.8442,0.53208,-0.064942
-3.0163,-8.0751,12.938,0.81824,0.57451,-0.020577
-2.8925,-8.0974,13.31,0.75791,0.64925,-0.063644
-2.8912,-8.147,13.85,0.74699,0.66467,0.014683
-2.9751,-8.0784,14.225,0.80013,0.59959,0.016931
-2.9244,-8.0578,14.541,0.75092,0.65963,0.031821
-2.9694,-8.1094,15.006,0.77333,0.6335,0.025229
-2.9238,-8.0933,15.333,0.8493,0.5266,-0.037329
-2.8545,-8.1089,15.786,0.84202,0.53932,0.01174
-2.9122,-8.0439,16.076,0.85877,0.51164,-0.027221
-2.8809,-8.0842,16.543,0.83135,0.54468,0.11037
-2.9167,-8.185,16.888,0.84351,0.53551,0.041502
-2.9146,-8.0934,17.271,0.83474,0.54101,-0.10253
-2.9051,-8.0247,17.749,0.79912,0.60055,-0.027315
-2.9202,-8.0875,18.007,0.84011,0.51776,0.16169
-2.9209,-8.1293,18.446,0.81048,0.57653,0.1036
-3.0564,-8.104,18.761,0.7186,0.69398,-0.044823
-2.9244,-8.0462,19.242,0.72309,0.6906,-0.014764
-3.016,-8.1115,19.634,0.82885,0.55314,-0.083891
-2.882,-7.9689,19.974,0.82506,0.54605,-0.14524
-2.6728,-8.4777,0.97937,0.79528,0.60623,-0.0021837
-2.7001,-8.4466,1.4585,0.8364,0.54803,0.010131
-2.7281,-8.4238,1.8026,0.85092,0.52457,-0.027627
-2.6741,-8.4135,2.1219,0.83427,0.55135,0.0016131
-2.7241,-8.4397,2.591,0.76544,0.64221,0.040803
-2.6268,-8.4708,2.9305,0.75212,0.65891,-0.012666
-2.741,-8.4144,3.446,0.77397,0.63321,-0.0044459
-2.7095,-8.4528,3.7776,0.77781,0.62491,-0.067087
-2.6919,-8.3766,4.1045,0.76309,0.64534,-0.03513
-2.7338,-8.4561,4.5477,0.81978,0.57229,-0.021272
-2.574,-8.4635,4.8425,0.77283,0.62455,-0.11254
-2.5876,-8.4635,5.2919,0.71668,0.69607,0.043072
-2.7245,-8.4207,5.7745,0.73379,0.67607,0.066937
-2.68,-8.4504,5.9296,0.74555,0.6498,0.14804
-2.6514,-8.3534,6.4948,0.83262,0.55254,-0.038138
-2.5602,-8.5118,6.7857,0.81755,0.56397,0.11642
-2.7325,-8.438,7.1741,0.75955,0.65045,0.00011931
-2.6702,-8.4057,7.589,0.75828,0.65192,-0.0042766
-2.7287,-8.406,8.0055,0.77915,0.62683,-0.0023566
-2.6969,-8.3998,8.3862,0.80452,0.58064,-0.12493
-2.6175,-8.4105,8.7981,0.76059,0.64723,0.050892
-2.6554,-8.5123,9.2005,0.70807,0.70137,0.081963
-2.6265,-8.4559,9.4528,0.799,0.59582,-0.081286
-2.7762,-8.5181,9.9688,0.69404,0.7196,0.021751
-2.6476,-8.4587,10.339,0.74071,0.64364,-0.19254
-2.7554,-8.3527,10.635,0.7772,0.62908,-0.014845
-2.6439,-8.4315,11.152,0.78531,0.61636,0.05814
-2.7285,-8.5063,11.402,0.82227,0.56095,-0.095989
-2.5931,-8.3594,11.836,0.75989,0.64907,0.035636
-2.7468,-8.5139,12.274,0.61221,0.77438,0.15982
-2.7225,-8.453,12.651,0.72179,0.68645,-0.088296
-2.6555,-8.4859,12.945,0.70285,0.71134,0.00033151
-2.6469,-8.4505,13.367,0.76005,0.64378,-0.088662
-2.5968,-8.448,13.701,0.73557,0.67729,-0.014677
-2.6529,-8.3944,14.153,0.7628,0.64662,0.0044447
-2.5846,-8.4574,14.475,0.81541,0.57879,0.010607
-2.657,-8.3989,14.978,0.80205,0.58114,0.1378
-2.7064,-8.5648,15.328,0.76876,0.63811,0.042728
-2.6063,-8.5042,15.792,0.83503,0.54674,-0.061612
-2.7511,-8.4588,16.068,0.84864,0.52898,0.0010511
-2.6517,-8.4241,16.496,0.76908,0.6389,-0.018155
-2.6899,-8.5155,16.846,0.75342,0.65479,0.060171
-2.688,-8.4485,17.372,0.83054,0.54389,-0.11993
-2.5919,-8.4167,17.725,0.85009,0.52226,0.067691
-2.7192,-8.4981,18.112,0.79482,0.60021,0.089533
-2.7008,-8.4281,18.417,0.74587,0.64871,-0.15117
-2.629,-8.3742,18.849,0.78671,0.61082,-0.089393
-2.6111,-8.4032,19.281,0.85594,0.51227,0.070392
-2.6921,-8.4321,19.633,0.75397,0.63902,0.15224
-2.7066,-8.4608,20.02,0.82135,0.56172,-0.099278
-2.2966,-8.8766,1.0883,0.7154,0.6987,-0.0037386
-2.4199,-8.764,1.36,0.70663,0.70545,0.054977
-2.4825,-8.7677,1.8347,0.74539,0.66655,0.010396
-2.467,-8.7505,2.2559,0.78381,0.62033,-0.028717
-2.3678,-8.8103,2.5485,0.66273,0.74783,-0.039241
-2.4364,-8.8088,3.0435,0.67617,0.73672,-0.006101
-2.3599,-8.7808,3.2531,0.67412,0.73832,0.020862
-2.395,-8.7225,3.7279,0.70142,0.70995,-0.063053
-2.3209,-8.7078,4.1908,0.74173,0.66657,0.07428
-2.4098,-8.7582,4.4749,0.74835,0.66327,-0.0061031
-2.3805,-8.7099,4.8998,0.79168,0.60982,-0.036911
-2.4098,-8.6981,5.2029,0.76814,0.63821,-0.051532
-2.3929,-8.6114,5.5708,0.71369,0.6948,0.088904
-2.4236,-8.7666,6.0402,0.76018,0.64588,0.070465
-2.4258,-8.7522,6.4199,0.78956,0.61348,-0.015295
-2.3992,-8.794,6.8136,0.75615,0.65434,0.0090336
-2.4252,-8.6981,7.2467,0.76021,0.64965,-0.0052406
-2.4297,-8.728,7.5604,0.74537,0.66624,0.023326
-2.4044,-8.8099,8.0196,0.70132,0.71273,0.01241
-2.4365,-8.7815,8.3974,0.76161,0.64766,-0.021796
-2.4062,-8.7064,8.7071,0.82314,0.56454,-0.061139
-2.4754,-8.6646,9.1307,0.78101,0.62243,0.05094
-2.3993,-8.7745,9.6128,0.75867,0.64869,-0.060235
-2.4231,-8.6676,9.8736,0.65243,0.75654,0.044515
-2.421,-8.6915,10.31,0.73918,0.66934,-0.074785
-2.3866,-8.7483,10.603,0.76315,0.64583,0.022457
-2.3598,-8.7896,11.004,0.81155,0.58217,0.049696
-2.4176,-8.7812,11.489,0.69613,0.71711,0.033897
-2.3633,-8.7799,11.824,0.84651,0.52953,-0.055009
-2.3496,-8.7443,12.283,0.70745,0.70654,0.017974
-2.3475,-8.7056,12.581,0.74909,0.66164,0.03311
-2.3837,-8.7558,13.074,0.7341,0.679,0.0069403
-2.3955,-8.6687,13.404,0.71068,0.70242,-0.039173
-2.3781,-8.7276,13.856,0.81794,0.57036,0.075257
-2.3632,-8.8157,14.141,0.83929,0.54163,0.047231
-2.3802,-8.8233,14.602,0.80933,0.58703,-0.019777
-2.3346,-8.8573,14.879,0.74948,0.65665,-0.084234
-2.3283,-8.7801,15.319,0.5895,0.80643,-0.046533
-2.4482,-8.7505,15.697,0.67715,0.73535,0.026938
-2.4185,-8.8226,16.082,0.74086,0.67042,-0.040692
-2.3442,-8.7723,16.569,0.7618,0.64663,-0.039159
-2.4203,-8.7902,16.865,0.69762,0.71407,0.058527
-2.4671,-8.7204,17.32,0.79571,0.6029,-0.05801
-2.4569,-8.7325,17.729,0.78704,0.61388,-0.060929
-2.3618,-8.8045,18.155,0.6744,0.73823,0.014407
-2.3844,-8.782,18.559,0.7205,0.68983,0.070869
-2.4517,-8.8333,18.869,0.81865,0.53785,0.20134
-2.4869,-8.8777,19.317,0.74852,0.6481,-0.14031
-2.3923,-8.8193,19.579,0.41864,0.90801,-0.016071
-2.4485,-8.8145,19.93,0.70601,0.70578,0.058523
-2.1531,-9.0214,0.92597,0.69201,0.72065,0.042244
-2.162,-9.0067,1.3528,0.71087,0.70329,-0.0072771
-2.1138,-9.0476,1.6539,0.66576,0.74219,0.076907
-2.1659,-9.1136,2.1403,0.59932,0.8005,0.0031697
-2.1147,-9.0482,2.5143,0.66371,0.71995,-0.20286
-2.1274,-8.901,2.9384,0.56839,0.82177,-0.040379
-2.1426,-8.9766,3.3271,0.59451,0.79284,0.13398
-2.0961,-9.0953,3.6887,0.67813,0.73423,-0.032356
-2.0795,-9.0046,4.0945,0.66143,0.74996,-0.0085102
-2.1066,-9.1173,4.4588,0.57686,0.80595,0.13298
-2.115,-9.0797,4.841,0.71072,0.70347,-0.0028188
-2.1016,-9.0239,5.2296,0.76923,0.62843,0.11559
-2.2375,-9.1044,5.6211,0.75347,0.64184,0.14255
-2.1586,-9.1402,6.0893,0.65378,0.735,-0.17988
-2.1495,-8.9615,6.4059,0.56934,0.82141,-0.033771
-2.1104,-9.0868,6.8813,0.61821,0.78436,0.05085
-2.0115,-9.0693,7.1938,0.57493,0.81781,0.025317
-2.123,-9.0708,7.5585,0.6764,0.73534,0.041802
-2.0757,-9.0901,8.0534,0.65967,0.74972,-0.052403
-2.1036,-9.0115,8.3586,0.64069,0.76373,0.078975
-2.187,-9.0832,8.6975,0.70394,0.71018,-0.010432
-2.1018,-9.0477,9.2176,0.75375,0.65164,-0.085046
-2.1401,-9.0399,9.56,0.71393,0.69993,-0.020151
-2.0772,-9.0455,9.8895,0.64283,0.76102,0.087333
-2.1855,-9.0895,10.228,0.73231,0.67539,0.087056
-2.1477,-9.0878,10.712,0.71865,0.69448,-0.0352
-2.1516,-9.108,11.062,0.6559,0.75484,0.0034444
-2.1659,-9.0356,11.538,0.69589,0.71552,-0.061412
-2.2114,-9.0367,11.819,0.73312,0.67891,-0.040313
-2.1158,-9.0596,12.195,0.78748,0.61631,0.0054527
-2.1897,-9.0842,12.607,0.76441,0.64463,0.011395
-2.149,-9.0244,12.931,0.56456,0.80531,-0.18096
-2.0612,-9.0145,13.378,0.74676,0.66405,0.037372
-2.0877,-9.172,13.796,0.68659,0.71295,0.14248
-2.212,-9.05,14.156,0.80995,0.58599,-0.024438
-2.0981,-9.0963,14.594,0.63093,0.77057,-0.090303
-2.0868,-9.0554,14.981,0.61294,0.78457,-0.093573
-2.0136,-9.0563,15.334,0.65885,0.75228,-0.001603
-2.0582,-9.1025,15.774,0.62583,0.76638,0.1449
-2.1793,-9.0373,16.133,0.69615,0.7142,-0.072762
-2.1799,-8.9512,16.517,0.70038,0.71275,-0.038139
-2.1193,-9.0748,16.797,0.59911,0.7822,0.17096
-2.1243,-9.1372,17.302,0.57429,0.81776,-0.038236
-2.1722,-8.9773,17.763,0.60443,0.78672,-0.12541
-2.166,-8.9388,18.12,0.6744,0.73823,0.014407
-2.1663,-9.0336,18.49,0.68993,0.7226,0.042864
-2.1781,-8.9864,18.844,0.59939,0.79738,-0.070117
-2.1156,-8.954,19.313,0.57123,0.81948,-0.046352
-2.0989,-9.0211,19.576,0.60435,0.79645,-0.020648
-2.1504,-8.9919,19.953,0.69231,0.71564,0.092555
-1.7985,-9.3232,0.94449,0.63422,0.76774,-0.091284
-1.8421,-9.3451,1.412,0.58545,0.81026,-0.027103
-1.8228,-9.2987,1.724,0.60447,0.79528,-0.046321
-1.7698,-9.2618,2.0856,0.63892,0.76924,-0.0077799
-1.8512,-9.2587,2.4948,0.56589,0.82439,-0.012067
-1.7879,-9.2906,2.8679,0.63121,0.77516,-0.026301
-1.8512,-9.2519,3.3483,0.59908,0.80068,0.0042911
-1.8439,-9.2161,3.7619,0.52374,0.84011,-0.1411
-1.7401,-9.1998,4.1358,0.65825,0.7524,-0.024547
-1.7421,-9.274,4.5658,0.53751,0.80971,0.2355
-1.8704,-9.3515,4.8791,0.71399,0.68895,0.12474
-1.8633,-9.3717,5.3564,0.4876,0.87031,-0.06927
-1.7633,-9.2556,5.5931,0.43726,0.89836,-0.041857
-1.8605,-9.2737,6.0375,0.52458,0.84716,-0.084424
-1.742,-9.1434,6.5061,0.65767,0.75028,-0.067454
-1.7799,-9.249,6.7467,0.65041,0.73696,0.18401
-1.817,-9.315,7.177,0.71964,0.69174,0.060089
-1.7941,-9.2792,7.5069,0.63116,0.77453,-0.041819
-1.7488,-9.3674,8.0133,0.68394,0.72129,0.1094
-1.8257,-9.3037,8.3286,0.70199,0.71217,0.0049931
-1.8488,-9.299,8.7232,0.56304,0.8254,0.041293
-1.8779,-9.3637,9.1242,0.6047,0.79467,0.053257
-1.8328,-9.3527,9.5702,0.5183,0.84863,-0.10578
-1.8468,-9.3155,9.9022,0.53222,0.84644,0.016922
-1.8214,-9.3194,10.215,0.56422,0.79952,0.20596
-1.8401,-9.2732,10.714,0.62373,0.7809,-0.034107
-1.78,-9.3327,11.152,0.58454,0.81101,0.023972
-1.8299,-9.3253,11.545,0.57881,0.81514,0.02298
-1.8243,-9.3795,11.85,0.56576,0.82085,0.078238
-1.8514,-9.401,12.268,0.70692,0.70182,-0.08787
-1.8444,-9.2829,12.637,0.54678,0.79816,-0.25292
-1.7288,-9.2458,12.979,0.61028,0.78948,-0.065371
-1.8795,-9.2501,13.329,0.5455,0.83009,0.11566
-1.8231,-9.3306,13.881,0.41379,0.90602,0.088938
-1.9399,-9.3568,14.233,0.45207,0.88983,-0.061927
-1.8608,-9.2501,14.608,0.55074,0.81307,-0.18869
-1.8007,-9.2841,14.925,0.6842,0.72743,-0.052027
-1.7888,-9.2774,15.339,0.71229,0.69928,-0.060424
-1.8151,-9.2238,15.749,0.60622,0.78465,0.12973
-1.8297,-9.3725,16.133,0.54635,0.82408,0.14967
-1.7596,-9.232,16.624,0.66193,0.74713,-0.060356
-1.9015,-9.2165,16.959,0.60139,0.79091,0.11308
-1.7852,-9.3066,17.302,0.61197,0.79088,0.00060076
-1.7869,-9.2871,17.557,0.62264,0.77289,-0.1223
-1.7667,-9.3831,18.102,0.57598,0.81724,0.019133
-1.8487,-9.2957,18.474,0.6523,0.75781,-0.014956
-1.8105,-9.2618,18.785,0.67911,0.73205,0.054092
-1.8647,-9.294,19.183,0.76436,0.63908,0.085621
-1.8959,-9.2956,19.679,0.59969,0.79581,0.08397
-1.8994,-9.3482,19.897,0.59969,0.79581,0.08397
-1.6221,-9.5503,0.93656,0.45949,0.87951,-0.12379
-1.477,-9.4727,1.4545,0.49259,0.84973,0.18794
-1.5622,-9.5497,1.8352,0.69331,0.70616,0.14372
-1.5683,-9.5991,2.1328,0.67799,0.73495,-0.013193
-1.5259,-9.5218,2.5335,0.61168,0.78578,-0.091585
-1.5211,-9.5504,2.9503,0.566,0.82273,-0.052547
-1.5367,-9.4574,3.2896,0.65837,0.74847,-0.079652
-1.4912,-9.4601,3.7022,0.69561,0.7184,0.0045621
-1.5327,-9.4758,4.15,0.73501,0.67511,-0.063159
-1.4972,-9.4922,4.3572,0.69494,0.71338,-0.090266
-1.6226,-9.5222,4.8698,0.51146,0.859,0.023042
-1.49,-9.4483,5.249,0.4808,0.86516,-0.14262
-1.4394,-9.5287,5.6634,0.56126,0.82626,0.047818
-1.5702,-9.4815,6.0872,0.54204,0.83983,-0.029762
-1.5224,-9.4637,6.3591,0.68741,0.72598,-0.020556
-1.6057,-9.4434,6.8015,0.71974,0.67231,0.17312
-1.6241,-9.4883,7.3,0.50422,0.86185,-0.054615
-1.5882,-9.4063,7.5806,0.59603,0.79824,0.086963
-1.6499,-9.5479,7.9727,0.57028,0.81652,0.089848
-1.6253,-9.5125,8.3314,0.48583,0.8662,-0.11693
-1.555,-9.4595,8.7174,0.61692,0.78561,-0.047222
-1.5194,-9.5211,9.2169,0.42399,0.90448,-0.046412
-1.5243,-9.4178,9.5574,0.45735,0.88549,-0.082088
-1.4953,-9.4485,9.8681,0.41253,0.90142,0.13138
-1.5478,-9.5555,10.27,0.51295,0.84182,0.16799
-1.5676,-9.5932,10.667,0.59908,0.80067,0.0059878
-1.6178,-9.4986,10.933,0.59744,0.79547,-0.1015
-1.5571,-9.5249,11.441,0.48714,0.86956,0.080925
-1.423,-9.5517,11.832,0.44345,0.89585,0.028299
-1.5884,-9.6003,12.298,0.40676,0.90993,0.081082
-1.5691,-9.5409,12.609,0.56546,0.80469,-0.1809
-1.4468,-9.5445,12.99,0.63029,0.77248,-0.07745
-1.517,-9.4631,13.421,0.60116,0.79909,-0.0084685
-1.4761,-9.4207,13.917,0.70741,0.70605,-0.032751
-1.5083,-9.3938,14.06,0.52404,0.85169,-0.001618
-1.4813,-9.5361,14.562,0.57156,0.81805,0.064063
-1.6124,-9.5289,15.116,0.60776,0.79234,0.053112
-1.5832,-9.4387,15.312,0.69738,0.71187,-0.083107
-1.4939,-9.521,15.764,0.64062,0.7675,-0.023503
-1.502,-9.4841,16.098,0.48576,0.86965,0.08807
-1.6387,-9.4966,16.545,0.62074,0.78401,0.00032674
-1.5657,-9.5431,16.9,0.62625,0.7757,0.078102
-1.6,-9.5367,17.302,0.58787,0.80683,-0.058612
-1.6085,-9.482,17.669,0.6812,0.72505,-0.10128
-1.4852,-9.5228,18.024,0.51559,0.85543,-0.048943
-1.5964,-9.4618,18.431,0.41712,0.90645,0.066047
-1.592,-9.555,18.861,0.63237,0.76973,0.087262
-1.5731,-9.5714,19.187,0.5084,0.85307,-0.11743
-1.5363,-9.4629,19.591,0.4662,0.87575,-0.12539
-1.5015,-9.4561,19.855,0.51342,0.85619,0.057777
-1.2004,-9.7041,0.97821,0.42334,0.8859,-0.18967
-1.2312,-9.6069,1.4139,0.46373,0.88553,0.028045
-1.3304,-9.6888,1.743,0.41702,0.88513,0.20649
-1.2557,-9.7574,2.1938,0.31995,0.9456,-0.058968
-1.2256,-9.7164,2.6077,0.43748,0.8942,-0.09502
-1.213,-9.681,2.9426,0.37898,0.92329,0.06246
-1.3148,-9.707,3.3608,0.52019,0.85221,0.055992
-1.2927,-9.7409,3.7181,0.42316,0.90468,0.049868
-1.2503,-9.8249,4.0327,0.3952,0.90878,-0.13395
-1.2136,-9.6473,4.3727,0.43965,0.82409,-0.35719
-1.1873,-9.7095,4.9202,0.3951,0.91057,-0.12151
-1.2711,-9.6562,5.256,0.46499,0.88185,-0.078292
-1.1793,-9.6074,5.6184,0.46626,0.87965,0.093869
-1.2592,-9.6908,6.1351,0.52076,0.83263,-0.18854
-1.2564,-9.621,6.4667,0.50481,0.85692,0.10415
-1.2631,-9.7558,6.7778,0.52972,0.84721,0.040305
-1.2042,-9.6569,7.1822,0.49356,0.8683,-0.049606
-1.2399,-9.699,7.6171,0.53342,0.84576,0.012426
-1.2678,-9.6672,8.0214,0.26945,0.95809,-0.097263
-1.1936,-9.6381,8.3926,0.42655,0.90445,0.0044026
-1.2839,-9.7247,8.7385,0.53424,0.84493,-0.026018
-1.2126,-9.6149,9.1504,0.45779,0.8858,-0.076094
-1.2186,-9.6922,9.5323,0.58053,0.81395,-0.021702
-1.2125,-9.6478,9.8568,0.5151,0.85694,0.017975
-1.2338,-9.741,10.324,0.3483,0.93124,0.10713
-1.2866,-9.7092,10.776,0.42285,0.90469,-0.052239
-1.2311,-9.7094,11.157,0.41904,0.90293,-0.095469
-1.2539,-9.6103,11.502,0.39699,0.91736,-0.029337
-1.3409,-9.6951,11.793,0.36079,0.93168,0.042557
-1.3216,-9.6344,12.226,0.41317,0.9104,0.021662
-1.2344,-9.7196,12.581,0.34306,0.93931,-0.0010246
-1.2228,-9.7008,12.914,0.51989,0.8516,0.067015
-1.1953,-9.6373,13.434,0.53961,0.83951,0.063616
-1.3098,-9.7691,13.788,0.70564,0.69292,0.14811
-1.2024,-9.8309,14.071,0.59726,0.80128,-0.034979
-1.2343,-9.691,14.527,0.4661,0.87547,-0.12766
-1.2687,-9.6341,14.968,0.40624,0.91121,0.068281
-1.3071,-9.7126,15.413,0.44762,0.89422,-0.0026512
-1.2218,-9.6392,15.745,0.36131,0.92963,-0.072416
-1.3014,-9.6873,16.147,0.43466,0.89559,0.094825
-1.2891,-9.6973,16.576,0.4029,0.91489,-0.025246
-1.2629,-9.676,16.909,0.42318,0.90565,-0.026829
-1.25,-9.6801,17.303,0.34409,0.93433,0.092924
-1.2883,-9.7045,17.778,0.48775,0.85967,-0.15187
-1.2025,-9.7025,18.071,0.434,0.88361,-0.17571
-1.2193,-9.5897,18.455,0.39292,0.91899,0.032651
-1.2707,-9.7008,18.854,0.34623,0.93083,0.11696
-1.224,-9.6943,19.222,0.2564,0.96652,0.010221
-1.266,-9.7105,19.601,0.48507,0.87447,-0.0034918
-1.3018,-9.6791,19.971,0.43335,0.90073,-0.0299
-0.92914,-9.8431,0.95792,0.35859,0.925,-0.12565
-0.86648,-9.8164,1.3872,0.38314,0.92334,-0.025434
-0.93283,-9.807,1.7138,0.28332,0.95887,0.017104
-0.84774,-9.7882,2.1557,0.186,0.98178,0.038798
-0.95759,-9.763,2.6004,0.29028,0.95641,0.032023
-0.94251,-9.8093,2.9802,0.46322,0.88457,-0.054463
-0.89356,-9.7914,3.3119,0.27929,0.96008,0.015482
-0.85135,-9.8189,3.7669,0.32005,0.94648,0.041741
-0.93785,-9.8263,4.0837,0.19052,0.96272,-0.19203
-0.93555,-9.7455,4.4068,0.38759,0.90539,-0.17333
-0.90263,-9.7573,4.9346,0.31403,0.94116,-0.12488
-0.94816,-9.7627,5.2525,0.43527,0.89885,-0.050957
-0.93074,-9.741,5.6324,0.36537,0.91957,0.14455
-1.0466,-9.8594,5.9499,0.40406,0.90665,0.12135
-0.97154,-9.7859,6.3667,0.50202,0.8627,-0.060999
-0.96075,-9.8682,6.7867,0.28779,0.95331,0.091564
-0.93288,-9.9072,7.1898,0.46984,0.88259,0.016734
-0.93461,-9.877,7.5916,0.35308,0.92205,-0.15859
-0.82137,-9.7747,7.9722,0.37368,0.92327,-0.089111
-0.8446,-9.8359,8.3913,0.39963,0.90752,0.12926
-0.95315,-9.8472,8.8157,0.32821,0.94229,0.06602
-0.93263,-9.8348,9.1107,0.51464,0.85604,-0.048264
-0.91342,-9.9011,9.5299,0.39544,0.91835,-0.016305
-0.88722,-9.8581,9.9219,0.42474,0.90008,-0.097223
-0.96773,-9.7462,10.218,0.41414,0.90759,0.069075
-0.93331,-9.8517,10.661,0.29919,0.95343,0.038096
-0.90751,-9.825,11.113,0.25551,0.96628,-0.031842
-0.81242,-9.8491,11.462,0.25453,0.96701,-0.0099732
-0.94193,-9.7712,11.845,0.33345,0.93055,0.15128
-0.87964,-9.9393,12.133,0.32915,0.94418,-0.013269
-0.96993,-9.7851,12.597,0.40317,0.88549,0.23101
-0.97118,-9.9534,12.989,0.20572,0.9648,0.16382
-0.9642,-9.9127,13.444,0.45022,0.89055,-0.065018
-0.94091,-9.8332,13.815,0.096547,0.99148,-0.087446
-0.97921,-9.814,14.25,0.33897,0.94024,-0.032373
-0.87734,-9.9031,14.511,0.4299,0.90275,-0.015458
-0.85687,-9.8389,14.885,0.3475,0.92468,-0.1556
-0.9142,-9.7763,15.38,0.38018,0.92148,-0.07961
-0.86587,-9.7605,15.726,0.47063,0.88144,-0.039621
-0.84847,-9.8284,16.071,0.36209,0.92958,0.06903
-0.91197,-9.8205,16.481,0.39245,0.91612,0.08188
-0.93068,-9.8569,16.831,0.39567,0.91832,-0.011706
-0.84222,-9.7777,17.33,0.29527,0.95504,-0.026921
-0.984,-9.875,17.677,0.21548,0.97651,0.00036633
-0.9114,-9.7977,18.04,0.3884,0.90899,-0.15131
-0.94892,-9.7246,18.478,0.44997,0.88999,-0.073807
-0.91768,-9.7846,18.763,0.33315,0.94149,0.051021
-0.85627,-9.7684,19.287,0.27775,0.95798,0.07159
-0.87646,-9.7884,19.567,0.2663,0.96378,-0.014381
-0.88154,-9.761,20.021,0.25902,0.96338,-0.069313
-0.55495,-9.9195,1.0069,0.14924,0.98355,-0.10181
-0.6485,-9.8702,1.3379,0.28495,0.95819,-0.025862
-0.63665,-9.8276,1.8637,0.34051,0.93939,0.039935
-0.66976,-9.9252,2.1807,0.41779,0.90771,0.038844
-0.60873,-9.8749,2.5257,0.43843,0.89438,0.088679
-0.61044,-10.018,2.9127,0.29766,0.95463,-0.0087385
-0.55011,-9.9105,3.2584,0.25565,0.95651,-0.14043
-0.75589,-9.9924,3.7624,0.12765,0.99048,0.05143
-0.68586,-9.9094,4.1204,0.32465,0.93197,-0.16136
-0.64272,-9.9713,4.5596,0.3328,0.94135,-0.055742
-0.69326,-9.8767,4.8253,0.37341,0.92607,0.054427
-0.57526,-10.007,5.2316,0.33851,0.94059,0.026544
-0.62845,-9.8833,5.7004,0.35279,0.93398,0.056682
-0.66131,-9.9203,5.9956,0.18854,0.96598,0.17702
-0.62093,-10.005,6.4069,0.3332,0.94119,0.056066
-0.67099,-9.9671,6.8061,0.14688,0.98732,-0.060163
-0.68554,-9.932,7.158,0.13853,0.99012,-0.021544
-0.53801,-9.9403,7.5946,0.18767,0.9809,0.051146
-0.63454,-9.9422,7.9285,0.39256,0.91972,0.0032875
-0.62956,-9.8945,8.3386,0.4007,0.91589,0.024167
-0.55395,-9.9642,8.6673,0.26947,0.96156,0.05279
-0.68273,-9.9712,9.1798,0.20816,0.97789,0.02008
-0.66616,-9.8924,9.5251,0.083599,0.98916,-0.12076
-0.57141,-9.8834,9.9151,0.2119,0.97218,0.099783
-0.66399,-9.9544,10.252,0.29488,0.95488,0.035485
-0.69444,-9.9107,10.616,0.16167,0.98161,-0.1015
-0.55702,-9.8706,11.054,0.27334,0.96171,-0.019835
-0.66512,-9.8896,11.582,0.27272,0.96188,0.020232
-0.65261,-9.9196,11.791,0.2551,0.95809,0.13033
-0.67736,-9.8661,12.305,0.28149,0.95729,-0.065954
-0.58116,-9.9325,12.54,0.26792,0.95641,-0.1162
-0.63666,-9.8456,13.002,0.026424,0.99927,0.02768
-0.74521,-9.9568,13.435,0.0089071,0.99963,-0.025719
-0.57517,-9.8631,13.812,0.062343,0.99789,-0.017928
-0.66981,-9.9458,14.151,0.16311,0.98228,0.092338
-0.61312,-9.9977,14.62,0.10257,0.98752,-0.1195
-0.55644,-9.8643,14.996,0.23667,0.96766,0.087268
-0.61549,-10.006,15.365,0.31329,0.94848,0.047253
-0.56314,-9.9424,15.71,0.2558,0.96161,-0.099364
-0.65713,-9.9218,16.172,0.2875,0.95699,0.038847
-0.68624,-9.955,16.511,0.25828,0.9657,0.026674
-0.67138,-9.9356,16.887,0.15974,0.98711,0.010287
-0.59005,-9.936,17.273,0.21185,0.97241,-0.097689
-0.57275,-9.8547,17.615,0.31015,0.94854,0.063871
-0.64715,-9.9138,18.044,0.34102,0.93959,0.029638
-0.66945,-9.8996,18.416,0.28738,0.95262,-0.099624
-0.61278,-9.8207,18.855,0.22116,0.97524,0.0021522
-0.63887,-9.8676,19.225,0.38046,0.92059,0.088119
-0.59755,-9.9005,19.622,0.41096,0.91046,-0.046625
-0.48032,-9.8902,20.012,0.31049,0.93923,-0.14641
-0.33921,-10.011,0.97603,0.15284,0.98675,0.054525
-0.30223,-10.012,1.4685,0.14958,0.98835,-0.027951
-0.43069,-9.9611,1.7839,0.23273,0.97232,0.020594
-0.43128,-9.9804,2.1607,0.1914,0.98151,0.0012349
-0.40814,-10.034,2.6335,0.14083,0.98787,0.065425
-0.27576,-9.9832,2.8541,0.15402,0.97525,0.15862
-0.34114,-9.9511,3.3455,0.14554,0.98129,-0.12606
-0.30888,-9.8553,3.7997,-0.030423,0.99577,0.086688
-0.35431,-9.9935,4.0447,0.03101,0.99583,0.08578
-0.30031,-10.002,4.4875,0.057497,0.99436,-0.089076
-0.31769,-9.9528,4.8352,0.085071,0.99504,-0.051521
-0.45453,-9.9629,5.2578,0.13832,0.98894,-0.053548
-0.31394,-9.9356,5.6905,0.072109,0.99714,-0.022463
-0.34619,-10.028,6.0544,0.049721,0.98552,0.1621
-0.23363,-10.052,6.4564,-0.051846,0.99776,-0.042371
-0.31495,-9.9791,6.8236,-0.020225,0.99794,-0.060925
-0.34169,-9.9582,7.2577,0.085392,0.99609,0.022779
-0.29957,-10.016,7.6384,0.269,0.96067,0.068858
-0.36446,-9.9888,7.9183,0.20999,0.97767,0.0080171
-0.3868,-9.9908,8.3926,0.068622,0.99764,-0.0038656
-0.40106,-9.9677,8.7841,0.022819,0.99974,0.0021825
-0.30473,-9.9906,9.2374,0.016392,0.99985,0.0051098
-0.26076,-9.9506,9.5871,0.20531,0.97493,0.085817
-0.32496,-10.012,9.9797,0.25542,0.96654,-0.023465
-0.37438,-9.9641,10.319,0.065817,0.99576,-0.064338
-0.28294,-9.9722,10.724,0.18725,0.97999,0.067502
-0.41994,-10.074,11.15,0.17876,0.98388,0.004338
-0.36427,-9.9324,11.457,0.11841,0.98839,-0.095252
-0.31476,-9.9827,11.832,0.22196,0.96933,0.10552
-0.39466,-10.019,12.282,0.046022,0.9968,-0.065306
-0.30402,-9.9205,12.705,-0.085171,0.99074,0.10573
-0.32392,-10.023,13.045,0.29961,0.95302,-0.044486
-0.36943,-9.9089,13.372,0.053989,0.98407,-0.16936
-0.2738,-9.9036,13.806,0.10454,0.99267,0.060715
-0.39764,-9.9205,14.156,0.11694,0.99085,0.067392
-0.28557,-9.9383,14.563,0.015966,0.99754,0.068264
-0.30194,-10.036,15.029,0.10881,0.99,0.089765
-0.2146,-9.9772,15.41,-0.039982,0.99166,-0.12256
-0.31766,-9.9206,15.745,0.015021,0.99988,0.0026902
-0.32323,-9.9699,16.1,0.090017,0.99472,0.049259
-0.3359,-9.9834,16.527,0.039815,0.99903,-0.01865
-0.29174,-9.933,16.96,0.11191,0.9915,-0.066382
-0.28828,-9.9634,17.255,0.18637,0.97775,0.096316
-0.33624,-10.058,17.657,0.21863,0.96514,0.14387
-0.36109,-10.098,18.121,0.17104,0.97767,-0.1221
-0.31701,-9.9506,18.435,0.20731,0.95625,-0.20642
-0.36334,-9.8689,18.848,0.28291,0.95793,0.048276
-0.37494,-9.9642,19.231,0.1208,0.98233,0.14295
-0.3541,-10.015,19.587,0.22076,0.97493,-0.027882
-0.24609,-10.007,20.025,0.21188,0.97603,-0.049719
-0.089243,-9.9394,0.94472,0.061691,0.99746,0.035616
-0.025473,-9.9565,1.4192,-0.0028781,0.99993,0.011526
-0.043251,-9.9999,1.8427,0.053769,0.99852,0.0080411
0.0043113,-9.9943,2.1896,-0.068881,0.99633,0.050874
-0.031811,-10.022,2.4843,-0.087433,0.99614,0.008036
0.027174,-10.085,2.9556,5.1516e-05,0.99798,-0.063565
0.0055356,-9.9913,3.2769,0.060432,0.98806,-0.14174
-0.048239,-9.9322,3.6618,0.27076,0.96132,-0.050589
0.031839,-10.01,4.04,0.12851,0.98769,0.089128
0.024877,-9.9712,4.4408,0.0088137,0.99777,-0.066119
0.068589,-9.9704,4.8914,0.022451,0.99698,0.074378
-0.062987,-10.038,5.3421,0.044614,0.99705,-0.06238
-0.017223,-9.9166,5.6994,0.099817,0.98525,-0.13902
-0.039063,-9.9215,5.916,0.013179,0.99455,0.10346
0.0083256,-9.9363,6.5041,-0.12168,0.99204,-0.032475
-0.0066215,-9.9982,6.7819,-0.12168,0.99204,-0.032475
0.046963,-9.9819,7.2401,-0.013408,0.99377,0.11067
-0.01868,-10.088,7.5753,0.058786,0.99014,0.12713
0.054481,-10.081,8.054,0.10994,0.98551,-0.12917
-0.022542,-9.958,8.3576,0.024472,0.98896,-0.14615
-0.023693,-9.9786,8.8039,-0.041474,0.99914,0.000905
-0.030138,-9.9575,9.1708,-0.028478,0.99959,0.001135
0.0093145,-10.006,9.5079,-0.067806,0.98651,0.149
-0.063912,-10.093,9.8645,0.072294,0.99738,0.0033413
-0.039834,-9.9696,10.252,-0.0046502,0.99404,-0.10891
0.015373,-10.013,10.655,-0.0090463,0.99723,0.073819
-0.044388,-9.9813,11.181,-0.024273,0.99963,0.012205
-0.0058997,-10.045,11.413,-0.027368,0.99793,0.058116
0.015389,-10.08,11.842,0.029613,0.99387,-0.10651
-0.092477,-9.9042,12.277,0.006598,0.99445,-0.10504
0.020748,-9.8934,12.651,0.031914,0.98857,0.14733
-0.11934,-10.053,13.015,-0.065934,0.98102,0.18233
0.0037428,-9.999,13.365,0.027515,0.98623,-0.16305
0.14282,-9.9228,13.857,0.068146,0.99763,-0.0095804
-0.028701,-10.011,14.132,0.03914,0.99787,0.052229
0.079696,-9.9557,14.577,0.032271,0.99947,-0.0049977
0.092288,-9.9946,14.956,-0.080514,0.9966,-0.017603
-0.0058792,-9.9477,15.4,0.00026018,0.99757,-0.069657
0.013035,-9.9502,15.771,0.10245,0.9945,0.021988
0.038647,-10.001,16.177,0.037003,0.99931,-0.00061011
-0.013463,-9.9588,16.483,0.032022,0.99828,0.049079
0.04827,-10.048,16.902,0.027262,0.99956,-0.01161
-0.021311,-9.962,17.245,0.058029,0.9979,0.028627
-0.0078558,-10.039,17.647,-0.10132,0.98733,0.12215
-0.0010019,-10.029,18.019,-0.17669,0.98353,0.038186
0.11392,-10.03,18.396,0.004688,0.99883,-0.048034
-0.035481,-9.9988,18.866,0.19981,0.97844,-0.0522
-0.0076954,-9.9077,19.163,0.16242,0.98409,0.071968
-0.0030599,-10.013,19.597,-0.016251,0.99496,0.098948
0.0041608,-10.02,20.068,0.049667,0.99796,-0.040071
0.19243,-10.023,1.0552,-0.023536,0.99921,-0.031996
0.33889,-9.9665,1.346,-0.040473,0.99881,0.027229
0.26047,-10.026,1.7652,-0.17308,0.98478,-0.016128
0.31441,-9.9138,2.2135,-0.069425,0.99706,-0.032472
0.32132,-9.9911,2.5222,-0.13011,0.99097,0.032537
0.31651,-10.012,2.8221,-0.16421,0.96815,0.189
0.30678,-9.9523,3.3257,-0.0096076,0.99814,-0.060264
0.33721,-10.079,3.7018,0.031412,0.99368,0.10772
0.35476,-10.042,4.1692,-0.11709,0.98838,-0.096943
0.45039,-9.988,4.4317,-0.16159,0.97439,-0.1564
0.24803,-9.9767,4.8683,-0.15161,0.98823,0.020253
0.30808,-10.011,5.2532,-0.061688,0.99652,0.056146
0.38258,-9.9906,5.637,0.05561,0.99819,-0.022878
0.2751,-9.9716,6.0637,0.1048,0.99433,-0.018068
0.28532,-9.9385,6.4431,-0.035165,0.99407,-0.10287
0.28566,-9.9512,6.771,-0.2032,0.97626,0.074958
0.38586,-9.9423,7.1307,-0.13954,0.98105,0.13443
0.30085,-10.037,7.5818,-0.21026,0.96209,0.1737
0.41713,-10.059,7.9355,-0.22913,0.9734,-0.0010417
0.25132,-10.021,8.3843,-0.086476,0.98095,-0.17396
0.31952,-9.9367,8.7796,-0.26138,0.96064,-0.094125
0.27994,-9.9476,9.0521,-0.1482,0.98888,0.012309
0.31912,-9.9456,9.5295,-0.10881,0.98963,0.093732
0.26448,-10.027,9.9783,-0.25317,0.96558,-0.059614
0.32307,-9.9388,10.374,-0.24151,0.97005,-0.026175
0.31548,-9.9882,10.661,-0.32367,0.94315,0.075497
0.3667,-9.9741,11.098,-0.098915,0.99484,0.022446
0.37364,-9.988,11.528,-0.30061,0.95332,0.028513
0.2655,-10.051,11.895,-0.29472,0.95543,0.017069
0.32146,-9.9769,12.277,0.078164,0.99342,-0.083682
0.2466,-9.9905,12.597,0.1425,0.98974,0.010254
0.30155,-9.9818,13.027,-0.10086,0.99484,-0.011343
0.31064,-9.9899,13.378,-0.10007,0.98895,0.10939
0.36231,-10.08,13.728,-0.081096,0.9963,0.028498
0.35815,-9.9578,14.268,-0.1245,0.99179,0.029122
0.42978,-9.9919,14.61,-0.11888,0.99283,-0.012468
0.28442,-9.9994,15.031,-0.12948,0.99113,-0.030073
0.21267,-9.9594,15.296,-0.0083079,0.99612,-0.087604
0.27442,-10.005,15.798,-0.10033,0.98891,0.10954
0.23833,-10.019,16.138,0.080459,0.99666,-0.013982
0.34263,-9.9675,16.364,-0.045381,0.98924,-0.13909
0.27891,-9.9481,16.85,-0.078502,0.99641,0.031582
0.30444,-9.9577,17.277,-0.15038,0.98848,-0.017232
0.3409,-9.9668,17.635,-0.22208,0.97501,-0.005356
0.29971,-9.9567,18.035,-0.26793,0.96301,0.028864
0.327,-9.9878,18.462,-0.32358,0.9462,-0.0014144
0.31449,-9.954,18.786,-0.21695,0.97427,0.060998
0.28776,-10.045,19.2,-0.093602,0.99498,0.035287
0.38001,-9.9923,19.647,-0.21306,0.97638,-0.035822
0.33236,-9.9538,20,-0.106,0.99431,-0.010747
0.58144,-9.9524,1.0587,-0.28806,0.94574,0.15031
0.69312,-9.9583,1.391,-0.1585,0.97604,-0.14906
0.58928,-9.8522,1.708,-0.24632,0.96503,-0.0897
0.58695,-9.9873,2.1654,-0.24832,0.96696,0.057727
0.60786,-9.8914,2.5897,-0.32591,0.94378,0.05541
0.74229,-10.004,2.9835,-0.25408,0.96705,-0.015945
0.55645,-9.9618,3.2756,-0.29715,0.95449,-0.025581
0.67101,-9.9479,3.7078,-0.41141,0.90846,0.073736
0.65351,-9.9211,4.1028,-0.32088,0.94306,-0.087612
0.57894,-9.8909,4.4463,-0.33152,0.9325,-0.14329
0.59373,-9.8493,4.8666,-0.20771,0.97603,0.065015
0.70541,-9.9768,5.2474,-0.29476,0.94523,0.14018
0.59614,-9.9756,5.6755,-0.21613,0.96958,0.1149
0.78342,-9.9986,5.968,-0.29038,0.95488,-0.062384
0.57318,-9.9766,6.4751,-0.17719,0.98194,-0.066317
0.57985,-9.8452,6.7709,-0.14868,0.98784,-0.04542
0.64176,-9.9273,7.2239,-0.22728,0.96407,0.13749
0.67336,-9.9122,7.5832,-0.24898,0.96465,0.086335
0.62733,-9.9691,8.0004,-0.32511,0.94516,0.031295
0.73318,-9.9073,8.4219,-0.2586,0.96405,-0.061035
0.65413,-9.7982,8.7565,-0.093373,0.99018,-0.10404
0.55461,-9.8664,9.0088,-0.15374,0.98803,-0.01239
0.6916,-9.9146,9.4453,-0.10513,0.99357,0.042021
0.66899,-9.8541,9.926,-0.23049,0.97262,-0.029759
0.62748,-9.8142,10.368,-0.040794,0.99846,-0.037597
0.62156,-9.8108,10.672,-0.23606,0.95996,0.15084
0.67501,-9.9295,11.029,-0.15873,0.98627,0.0456
0.69931,-9.857,11.51,-0.19269,0.97951,-0.058622
0.55231,-9.8829,11.839,-0.28619,0.95585,0.066646
0.61481,-9.9456,12.283,-0.17328,0.9778,0.11779
0.64257,-9.9902,12.594,-0.13124,0.9908,0.03299
0.61807,-9.967,13.033,-0.30968,0.94473,-0.1076
0.66667,-9.899,13.347,-0.22067,0.9725,0.074487
0.63294,-9.9556,13.777,-0.30684,0.95027,-0.053287
0.65626,-9.8889,14.25,-0.17803,0.98011,0.087649
0.69291,-9.9168,14.553,-0.20833,0.97787,-0.01947
0.63694,-9.8887,14.976,-0.30399,0.95261,-0.010891
0.56202,-9.9701,15.317,-0.22952,0.97238,-0.042348
0.54139,-9.8892,15.737,-0.23883,0.97068,0.027297
0.69103,-9.97,16.14,-0.1312,0.99115,0.020212
0.58637,-9.9415,16.506,-0.13547,0.99013,-0.036031
0.72668,-9.9501,16.896,-0.26763,0.96235,-0.04744
0.59594,-9.9016,17.279,-0.21743,0.97303,-0.077118
0.64133,-9.888,17.712,-0.33167,0.94191,-0.052954
0.66898,-9.8428,17.958,-0.27481,0.96065,0.040313
0.5439,-9.893,18.498,-0.19892,0.9702,-0.13834
0.61386,-9.8537,18.837,-0.2628,0.96421,-0.034989
0.58517,-9.8744,19.259,-0.35188,0.93396,0.062478
0.56086,-9.9475,19.604,-0.046714,0.99613,0.074389
0.66233,-9.9511,20.02,-0.17046,0.97899,-0.11193
0.86336,-9.7656,1.0205,-0.39319,0.91515,0.088837
0.95561,-9.8397,1.4152,-0.35855,0.93318,0.024765
0.97465,-9.8123,1.6992,-0.27277,0.96198,-0.013511
0.90135,-9.7834,2.1082,-0.30782,0.94969,0.057807
0.91946,-9.7504,2.6265,-0.23389,0.95988,0.15468
1.0188,-9.8494,3.0043,-0.54876,0.83482,0.04402
0.84956,-9.7959,3.3448,-0.38167,0.91335,-0.14185
0.87244,-9.8316,3.749,-0.2992,0.95015,0.08768
0.88881,-9.8814,4.0857,-0.32895,0.94146,0.073835
1.0823,-9.8499,4.4977,-0.46136,0.88621,-0.042266
0.9929,-9.8281,4.8904,-0.29149,0.95131,-0.10017
0.76803,-9.8381,5.2959,-0.20722,0.97335,0.098271
0.95613,-9.8681,5.6374,-0.54032,0.83788,0.07751
0.8451,-9.7995,6.0461,-0.29038,0.95488,-0.062384
0.96022,-9.8281,6.4017,-0.336,0.94143,0.028637
1.0125,-9.8387,6.7717,-0.3851,0.92101,-0.058686
0.91566,-9.8042,7.228,-0.42681,0.90431,0.0079253
0.98454,-9.8913,7.5732,-0.36315,0.92826,0.080426
1.015,-9.8366,7.9873,-0.43021,0.90172,-0.042793
1.0005,-9.8564,8.4431,-0.16217,0.98675,0.0044973
0.89219,-9.9111,8.8239,-0.024102,0.99662,-0.078542
0.93811,-9.8026,9.107,-0.33669,0.93699,0.09323
0.96627,-9.9121,9.5119,-0.39898,0.91675,-0.019602
0.97003,-9.7869,9.9436,-0.38257,0.92307,-0.039883
0.96339,-9.9013,10.342,-0.28446,0.95665,0.062481
0.97124,-9.8508,10.654,-0.040443,0.96042,-0.27562
0.96123,-9.8882,11.128,-0.45337,0.88513,-0.10485
0.86978,-9.8252,11.456,-0.096762,0.99358,-0.058615
0.94732,-9.8577,11.879,-0.23522,0.96729,0.095035
1.0225,-9.8692,12.236,-0.36224,0.93149,0.033356
0.8801,-9.894,12.615,-0.46515,0.87987,-0.097303
0.90373,-9.7871,13.003,-0.42341,0.90591,-0.0063984
0.92527,-9.9137,13.39,-0.4355,0.89551,0.091716
0.94538,-9.8644,13.836,-0.37098,0.92524,-0.079424
0.96057,-9.8653,14.238,-0.42602,0.90202,0.069722
0.90723,-9.8791,14.582,-0.16121,0.98523,-0.057741
0.94981,-9.804,14.922,-0.21305,0.97282,-0.090775
0.87694,-9.8165,15.328,-0.32322,0.94602,0.023834
0.88894,-9.8248,15.706,-0.20334,0.97194,0.11824
0.97826,-9.9068,16.186,-0.39552,0.91845,0.00237
0.92002,-9.841,16.504,-0.26388,0.9358,-0.23375
0.88644,-9.7414,16.872,-0.36776,0.92888,0.044009
0.92777,-9.82,17.334,-0.13196,0.98879,0.069868
0.92608,-9.7498,17.666,-0.091502,0.99579,0.0044853
0.96812,-9.8179,18.103,-0.25119,0.95905,0.13085
0.9626,-9.8691,18.439,-0.25561,0.96581,-0.043337
0.8814,-9.8171,18.838,-0.20226,0.97456,-0.096548
0.93416,-9.7938,19.232,-0.32013,0.93767,0.13525
0.94344,-9.9285,19.565,-0.40957,0.91175,0.031139
0.97944,-9.8133,20.008,-0.45593,0.87887,-0.14037
1.3413,-9.6822,1.0709,-0.38742,0.909,0.1537
1.2467,-9.6426,1.4177,-0.39626,0.91814,-0.0025535
1.2714,-9.7138,1.7812,-0.55957,0.82573,0.071001
1.2778,-9.6869,2.1739,-0.46127,0.88672,0.030976
1.3079,-9.7563,2.5042,-0.4169,0.90895,0.0012481
1.2338,-9.6195,3.0687,-0.43681,0.89164,-0.11907
1.1887,-9.7084,3.3344,-0.43982,0.89759,0.029808
1.1404,-9.7696,3.7142,-0.29726,0.95041,0.091417
1.2514,-9.7339,4.077,-0.47336,0.88054,0.024285
1.2324,-9.7133,4.5707,-0.56388,0.82256,-0.073761
1.2399,-9.6616,4.8998,-0.41875,0.90777,0.024398
1.2636,-9.6499,5.3489,-0.47186,0.87823,-0.077857
1.2586,-9.5714,5.6651,-0.56315,0.80356,0.19276
1.2345,-9.7923,6.0101,-0.3965,0.91791,0.01516
1.2722,-9.6482,6.3737,-0.44014,0.87106,-0.21801
1.235,-9.5823,6.7625,-0.52946,0.83891,-0.12607
1.2379,-9.6094,7.1197,-0.35071,0.92576,0.14132
1.2246,-9.7004,7.584,-0.51276,0.85094,0.11395
1.2937,-9.6516,8.081,-0.56772,0.82293,0.022037
1.1487,-9.7355,8.2967,-0.47024,0.88136,-0.045673
