-3.8005,3.1754,5.6667,0.75105,-0.65902,0.040141
-3.8901,3.2385,6.0509,0.77235,-0.63513,0.0093365
-3.9129,3.1034,6.4069,0.77597,-0.6254,-0.082122
-3.8296,3.122,6.893,0.75864,-0.63492,0.1461
-3.8657,3.2401,7.2587,0.84434,-0.52991,-0.079281
-3.7703,3.1763,7.6517,0.81269,-0.57072,-0.11755
-3.8231,3.1614,7.9332,0.77793,-0.62833,-0.0056188
-3.8117,3.1887,8.4094,0.8561,-0.51672,0.0097978
-3.7802,3.2216,8.7997,0.75725,-0.65036,0.060113
-3.8968,3.2056,9.2547,0.75138,-0.65917,-0.030381
-3.8449,3.1902,9.5483,0.79514,-0.60623,0.015403
-3.8548,3.2603,9.8851,0.81686,-0.57669,-0.013002
-3.8937,3.1242,10.261,0.80829,-0.55941,-0.18364
-3.8132,3.0429,10.68,0.80067,-0.59689,0.051577
-3.8624,3.2314,11.077,0.79295,-0.60633,-0.059964
-3.8071,3.1719,11.477,0.74439,-0.66765,-0.011686
-3.8109,3.202,11.88,0.74396,-0.66809,0.013426
-3.8649,3.121,12.222,0.70708,-0.70231,-0.082438
-3.7508,3.2218,12.605,0.76182,-0.64777,0.0044869
-3.8207,3.2184,13.011,0.67093,-0.74152,-0.00072292
-3.7962,3.1982,13.349,0.76545,-0.64183,-0.046291
-3.8438,3.1508,13.732,0.79475,-0.60399,-0.059688
-3.7868,3.2999,14.249,0.81555,-0.57787,-0.030762
-3.8292,3.0945,14.572,0.81006,-0.58446,-0.047014
-3.7862,3.1434,15.022,0.82478,-0.53233,0.19069
-3.9172,3.3078,15.336,0.90172,-0.43167,-0.023825
-3.784,3.1816,15.743,0.69302,-0.69596,-0.18807
-3.8316,3.1381,16.132,0.68654,-0.71463,0.13403
-3.9875,3.1851,16.478,0.77324,-0.62603,0.10098
-3.8183,3.1822,16.985,0.79597,-0.60247,0.05889
-3.8108,3.2144,17.267,0.82192,-0.56757,0.048106
-3.8857,3.2149,17.631,0.80266,-0.59619,0.017057
-3.8975,3.142,18.02,0.79055,-0.61228,0.011741
-3.9174,3.2271,18.411,0.82942,-0.55848,-0.013087
-3.9163,3.0973,18.785,0.6935,-0.71489,-0.089393
-3.9091,3.2164,19.274,0.698,-0.7161,0.00092144
-3.8578,3.1304,19.606,0.76838,-0.62695,-0.12854
-3.8518,3.1826,20.117,0.77394,-0.63312,-0.013203
-4.0167,2.9248,0.99292,0.85094,-0.52113,0.065727
-4.0156,2.9467,1.4661,0.79993,-0.59758,0.054855
-4.1295,2.8811,1.7397,0.67883,-0.73417,-0.013387
-3.9869,2.9479,2.1774,0.73848,-0.67395,0.021158
-4.0042,2.9795,2.5141,0.82483,-0.56533,0.0075732
-3.9869,2.8961,2.9024,0.90101,-0.4259,0.082448
-4.0898,2.9371,3.2907,0.87972,-0.45991,0.12076
-4.0326,3.0274,3.7121,0.79773,-0.60297,0.006626
-4.0832,2.9257,4.1384,0.88712,-0.46144,-0.009669
-4.0641,2.9548,4.4742,0.86707,-0.49602,-0.046302
-4.0243,2.9535,4.7746,0.89413,-0.44754,0.01581
-4.0834,2.9471,5.181,0.81393,-0.58032,0.02724
-4.0485,2.895,5.6488,0.74599,-0.66183,-0.074055
-4.0147,2.9492,5.962,0.83394,-0.54929,0.053216
-4.047,2.9041,6.4773,0.76373,-0.61822,0.18581
-4.1178,2.9812,6.9153,0.69766,-0.71643,-0.00074821
-4.0198,3.0147,7.1577,0.75052,-0.65834,-0.057506
-4.0556,2.8474,7.6807,0.77569,-0.61463,0.1433
-4.0377,2.9763,7.9891,0.76082,-0.64847,-0.025439
-3.9506,2.9329,8.3113,0.77401,-0.63257,-0.027753
-4.0777,2.8795,8.6813,0.76657,-0.64044,0.047085
-4.0166,2.9865,9.1591,0.77247,-0.63503,-0.005131
-4.0342,2.8698,9.4668,0.82693,-0.56165,-0.027114
-4.0824,2.879,9.8886,0.76369,-0.64495,-0.028722
-4.0119,2.8892,10.325,0.78545,-0.6149,-0.07049
-4.0944,2.8478,10.698,0.66365,-0.74804,0.0022884
-4.0038,2.9028,11.083,0.76501,-0.62891,0.13869
-4.0741,2.9767,11.524,0.80084,-0.58203,0.14106
-4.1082,2.9883,11.898,0.71964,-0.69145,-0.063453
-4.0421,2.9706,12.179,0.76422,-0.60363,-0.22715
-4.0633,2.9076,12.697,0.75865,-0.63716,0.13595
-4.0166,3.0335,13.032,0.74956,-0.66191,-0.0053925
-4.0999,2.8919,13.418,0.75559,-0.64554,-0.11118
-3.9965,2.9174,13.836,0.76356,-0.63476,-0.11854
-3.9818,2.8712,14.151,0.83484,-0.55048,-0.0045781
-4.0203,2.9173,14.535,0.74746,-0.66137,0.062418
-4.023,2.9135,15.057,0.81463,-0.55117,0.18053
-4.0318,2.9264,15.369,0.92021,-0.37099,0.12484
-4.1439,3.0006,15.703,0.78958,-0.6135,0.013179
-4.0126,2.987,16.061,0.74819,-0.66159,0.050206
-4.1275,2.904,16.62,0.91672,-0.39854,0.027974
-4.0211,2.8972,16.885,0.74277,-0.66806,-0.044669
-4.0489,2.9449,17.274,0.78252,-0.62236,-0.018243
-4.0048,2.8806,17.593,0.84972,-0.52688,-0.019188
-4.0155,2.9944,18.018,0.89024,-0.45286,0.048871
-4.031,2.9533,18.423,0.84588,-0.53334,0.0064627
-4.0967,2.9383,18.914,0.82854,-0.55972,-0.015452
-4.034,2.9369,19.202,0.84204,-0.53849,0.031461
-4.0502,2.979,19.62,0.93421,-0.34944,-0.071663
-3.9685,2.9421,19.993,0.7974,-0.60158,-0.047555
-4.1883,2.5868,0.96045,0.86158,-0.49098,0.1289
-4.2672,2.685,1.3814,0.86253,-0.49197,0.11835
-4.2524,2.6604,1.7405,0.89776,-0.43947,0.029927
-4.247,2.7088,2.2021,0.85875,-0.50116,-0.10669
-4.2457,2.6118,2.494,0.8996,-0.42972,-0.077899
-4.2483,2.5781,2.8864,0.81531,-0.5769,0.049633
-4.2125,2.6423,3.2996,0.8691,-0.4789,0.12376
-4.1973,2.7557,3.6976,0.89628,-0.44347,-0.0021014
-4.2166,2.6413,4.0639,0.88881,-0.45769,-0.023168
-4.1804,2.7097,4.4896,0.87789,-0.47322,-0.073289
-4.1758,2.6495,4.8776,0.78637,-0.60984,0.098568
-4.2388,2.7504,5.2273,0.88739,-0.46069,0.017453
-4.2389,2.6888,5.5995,0.88144,-0.4623,-0.096677
-4.1727,2.7161,6.1289,0.82516,-0.56469,0.015533
-4.2267,2.668,6.4898,0.8719,-0.46977,0.13825
-4.3234,2.7482,6.8301,0.90473,-0.42572,0.015293
-4.2103,2.6853,7.1515,0.80357,-0.55227,-0.22198
-4.1467,2.6907,7.5983,0.83688,-0.54701,0.020249
-4.1924,2.7174,8.0583,0.79222,-0.61005,-0.015286
-4.1914,2.7261,8.2879,0.65567,-0.75032,-0.084382
-4.1829,2.7219,8.703,0.8691,-0.4779,0.12762
-4.3081,2.6577,9.1234,0.83013,-0.55746,-0.011282
-4.2412,2.6573,9.5678,0.81997,-0.56995,0.052988
-4.2201,2.6959,9.915,0.82526,-0.55757,-0.089833
-4.1663,2.6756,10.226,0.82295,-0.55296,-0.1303
-4.2543,2.6517,10.748,0.86106,-0.50744,0.032665
-4.2202,2.6993,10.951,0.79941,-0.58594,-0.13274
-4.2298,2.6378,11.515,0.8649,-0.50156,-0.019558
-4.2267,2.7416,11.929,0.92768,-0.36029,-0.098018
-4.1698,2.6213,12.28,0.82607,-0.56354,0.0050887
-4.2122,2.67,12.591,0.76092,-0.64544,0.066425
-4.2864,2.6717,13.042,0.8621,-0.50674,0.0017576
-4.1816,2.716,13.452,0.76778,-0.63456,-0.088562
-4.1547,2.7408,13.708,0.76037,-0.64528,-0.073853
-4.1966,2.6792,14.072,0.7246,-0.68864,-0.026784
-4.2084,2.6705,14.628,0.84878,-0.52818,-0.024376
-4.1607,2.7581,14.889,0.84878,-0.52818,-0.024376
-4.2432,2.6778,15.35,0.69306,-0.69849,-0.17828
-4.1599,2.66,15.706,0.90447,-0.42349,0.050796
-4.2356,2.6765,16.122,0.77108,-0.63152,0.081389
-4.1329,2.7405,16.441,0.91858,-0.38674,0.081495
-4.2705,2.6874,16.875,0.89708,-0.43965,0.044338
-4.2052,2.7239,17.287,0.76956,-0.63103,-0.09784
-4.2241,2.6507,17.664,0.69362,-0.72031,-0.0067547
-4.1492,2.7316,18.102,0.82492,-0.5639,0.039033
-4.2553,2.685,18.535,0.89541,-0.44444,0.026549
-4.1638,2.6548,18.815,0.75193,-0.65924,-0.00029396
-4.2555,2.6353,19.236,0.7289,-0.65239,-0.20759
-4.1144,2.5234,19.609,0.88284,-0.46683,0.051579
-4.2124,2.6776,19.984,0.83747,-0.51941,0.1699
-4.3547,2.4274,1.0258,0.85674,-0.49291,0.15177
-4.3527,2.3233,1.3208,0.85674,-0.49291,0.15177
-4.298,2.388,1.853,0.88804,-0.44895,0.099138
-4.3376,2.4652,2.1804,0.89516,-0.44425,-0.03662
-4.298,2.3238,2.4569,0.84416,-0.50823,-0.17057
-4.2602,2.3835,2.9291,0.86999,-0.47132,0.14483
-4.4037,2.4637,3.3439,0.93875,-0.32518,0.11407
-4.3597,2.3913,3.6621,0.88387,-0.45289,0.11684
-4.337,2.4715,4.2049,0.84664,-0.53204,-0.011628
-4.3581,2.3202,4.4503,0.92282,-0.38521,0.0030605
-4.3943,2.5155,4.8111,0.90524,-0.42489,-0.0018972
-4.2724,2.5001,5.2923,0.88987,-0.45554,-0.024642
-4.3616,2.3786,5.6173,0.85095,-0.52421,0.032852
-4.4135,2.3665,6.0434,0.85911,-0.5091,0.05234
-4.3753,2.4246,6.437,0.8701,-0.49262,0.015885
-4.3973,2.3713,6.8587,0.95901,-0.28311,-0.012067
-4.3763,2.4895,7.1854,0.94551,-0.31975,-0.061477
-4.3545,2.4424,7.6302,0.79646,-0.60113,-0.065549
-4.4279,2.3776,7.9413,0.79106,-0.58317,0.18478
-4.4989,2.502,8.3228,0.90253,-0.42043,-0.093161
-4.3307,2.3626,8.7829,0.88014,-0.452,0.14509
-4.3995,2.4367,9.1413,0.89109,-0.4518,0.042904
-4.389,2.3928,9.4788,0.87749,-0.46868,-0.10171
-4.3549,2.4559,9.948,0.86263,-0.50572,-0.010975
-4.3423,2.3911,10.369,0.81107,-0.58337,0.042879
-4.3995,2.4585,10.708,0.85004,-0.52619,0.023491
-4.3711,2.3818,11.098,0.89548,-0.43291,0.10352
-4.499,2.4122,11.4,0.89939,-0.43501,-0.043242
-4.319,2.4263,11.902,0.89328,-0.44477,0.064988
-4.4609,2.4694,12.267,0.83267,-0.55101,0.055255
-4.3832,2.4095,12.676,0.86162,-0.5027,-0.07006
-4.4049,2.3582,12.942,0.87819,-0.4754,0.052679
-4.4071,2.4936,13.493,0.86048,-0.50782,-0.041171
-4.3906,2.4423,13.905,0.83949,-0.54201,-0.038514
-4.4451,2.4393,14.204,0.86296,-0.50444,-0.029057
-4.3484,2.4192,14.681,0.8755,-0.47093,-0.10825
-4.3393,2.3873,15.012,0.89923,-0.38952,0.19916
-4.4429,2.5067,15.383,0.81355,-0.58149,-0.0008254
-4.3632,2.4198,15.702,0.83061,-0.5353,-0.15342
-4.4652,2.4499,16.159,0.90826,-0.41472,-0.055349
-4.2848,2.4081,16.59,0.82351,-0.56164,-0.080007
-4.3104,2.4526,16.87,0.87939,-0.45416,0.14289
-4.4404,2.435,17.276,0.81934,-0.5639,0.1034
-4.4701,2.4666,17.738,0.85767,-0.50921,-0.071417
-4.4062,2.3969,18.087,0.78976,-0.5808,-0.19737
-4.3354,2.368,18.405,0.88902,-0.45696,-0.028871
-4.508,2.4576,18.936,0.80148,-0.57692,0.15747
-4.4587,2.3822,19.177,0.87555,-0.48295,-0.013416
-4.3081,2.3927,19.627,0.78816,-0.6148,0.028737
-4.4325,2.3745,19.93,0.78732,-0.59965,0.14334
-4.5094,2.1218,1.04,0.87306,-0.47585,0.10648
-4.5596,2.1634,1.4355,0.84445,-0.53122,-0.068597
-4.5043,2.071,1.7141,0.85253,-0.52113,-0.040141
-4.5748,2.0796,2.0741,0.88346,-0.45714,0.10257
-4.5416,2.1745,2.5065,0.80046,-0.59038,-0.10351
-4.4717,2.0991,2.943,0.73038,-0.66414,-0.15955
-4.4286,2.1093,3.305,0.90833,-0.40747,0.094303
-4.5735,2.1279,3.6781,0.85604,-0.50676,0.10192
-4.5235,2.147,4.1478,0.95317,-0.28879,0.089795
-4.5559,2.1411,4.5248,0.8994,-0.43633,-0.026318
-4.4589,2.0869,4.7689,0.92705,-0.33794,0.1624
-4.5834,2.0947,5.3193,0.88289,-0.46802,0.03823
-4.5449,2.1223,5.6754,0.86105,-0.50658,-0.044424
-4.4879,2.1243,6.1248,0.86525,-0.50095,0.020063
-4.558,2.1554,6.3678,0.91638,-0.39969,0.022059
-4.5402,2.0887,6.7982,0.89229,-0.447,-0.063353
-4.4423,2.1578,7.1645,0.91836,-0.38203,0.10326
-4.6418,2.0568,7.6178,0.90149,-0.43172,-0.030652
-4.5307,2.1475,7.9284,0.90149,-0.43172,-0.030652
-4.4696,2.0202,8.4085,0.96148,-0.27477,-0.0076991
-4.5578,2.0611,8.7153,0.8106,-0.55957,0.17268
-4.5414,2.1314,9.1639,0.88605,-0.44461,-0.13127
-4.5666,2.1244,9.5081,0.90848,-0.40589,-0.099594
-4.4249,2.1918,9.8737,0.9238,-0.38272,-0.011104
-4.5431,2.1676,10.21,0.89621,-0.4331,0.096061
-4.5638,2.1661,10.674,0.9157,-0.4018,-0.0067859
-4.503,2.1416,11.068,0.96131,-0.27543,0.0050584
-4.5398,2.13,11.49,0.89305,-0.44285,-0.07963
-4.482,2.0691,11.772,0.84694,-0.43543,-0.30511
-4.4633,2.1638,12.276,0.92961,-0.36056,0.076278
-4.4925,2.2668,12.691,0.89093,-0.45074,0.055447
-4.5372,2.1362,13.072,0.86595,-0.48153,-0.13514
-4.4579,2.2011,13.443,0.93129,-0.36016,0.054545
-4.6529,2.099,13.782,0.95578,-0.27186,0.11213
-4.5534,2.0695,14.071,0.92663,-0.36866,-0.073846
-4.4934,2.2169,14.577,0.892,-0.42709,-0.14812
-4.4464,2.1482,15.003,0.85834,-0.51264,0.021437
-4.5423,2.1919,15.365,0.93504,-0.35437,-0.011355
-4.4826,2.1396,15.744,0.90711,-0.42043,0.019506
-4.477,2.2174,16.068,0.9057,-0.40398,0.12848
-4.5984,2.1166,16.562,0.81869,-0.57298,-0.03798
-4.5643,2.0195,16.978,0.9855,-0.14778,-0.083383
-4.5503,2.1481,17.364,0.97113,-0.23033,0.062067
-4.5659,2.1234,17.651,0.97845,-0.20301,0.03764
-4.5063,2.1621,18.12,0.9257,-0.37697,-0.031328
-4.5418,2.1635,18.428,0.87252,-0.48809,0.021745
-4.4943,2.1456,18.824,0.93871,-0.34063,0.052799
-4.6092,2.1637,19.205,0.98601,-0.15512,0.061024
-4.5573,2.1467,19.575,0.94006,-0.32242,-0.11104
-4.5189,2.0931,20.039,0.88936,-0.44991,0.081297
-4.566,1.9288,1.0883,0.90823,-0.41847,-0.0019461
-4.686,1.8461,1.3381,0.94934,-0.31274,0.030732
-4.5815,1.8987,1.7033,0.95672,-0.28495,-0.059038
-4.678,1.7972,2.1553,0.95132,-0.26524,0.15698
-4.6762,1.8729,2.5722,0.90224,-0.42069,0.094731
-4.7012,1.9032,2.92,0.81238,-0.58219,-0.032887
-4.6074,1.9003,3.3169,0.79298,-0.60716,0.05031
-4.6762,1.8591,3.8222,0.93041,-0.30128,-0.20873
-4.5336,1.7357,4.0895,0.94111,-0.26798,-0.20616
-4.5396,1.8473,4.4641,0.91142,-0.37994,0.15799
-4.6514,1.8588,4.8741,0.92826,-0.37068,0.030407
-4.6499,1.7475,5.2518,0.93562,-0.35152,0.032438
-4.6946,1.8666,5.5705,0.93975,-0.3339,0.073323
-4.7037,1.8555,6.0685,0.93331,-0.31673,0.16915
-4.6665,1.776,6.4546,0.91421,-0.40445,-0.025156
-4.7304,1.7778,6.9141,0.9468,-0.31977,-0.036304
-4.6465,1.7835,7.1578,0.92247,-0.38563,-0.018647
-4.6259,1.8852,7.6013,0.95805,-0.2865,-0.0076995
-4.6427,1.8428,7.9623,0.92736,-0.37397,0.012241
-4.7416,1.7445,8.3999,0.8605,-0.50944,0.0026698
-4.7195,1.7598,8.7816,0.93903,-0.32832,0.10216
-4.7307,1.8916,9.0039,0.94924,-0.30819,-0.062973
-4.5856,1.896,9.4758,0.95008,-0.31145,-0.018708
-4.5931,1.8174,9.934,0.93802,-0.33319,0.095422
-4.6708,1.8495,10.305,0.94728,-0.31596,0.053279
-4.6117,1.8387,10.698,0.95433,-0.28633,-0.085219
-4.5771,1.8586,11.11,0.88781,-0.43428,0.15231
-4.7715,1.8281,11.529,0.87775,-0.47751,0.03922
-4.6592,1.8073,11.781,0.86966,-0.38678,-0.30673
-4.6255,1.8345,12.248,0.93857,-0.34208,0.045445
-4.6686,1.843,12.68,0.94712,-0.31618,0.054748
-4.7207,1.8294,13.083,0.93376,-0.35525,-0.043474
-4.5782,1.8375,13.463,0.91409,-0.40525,0.014411
-4.6486,1.8274,13.854,0.94814,-0.31035,0.068709
-4.6588,1.8543,14.146,0.9192,-0.38985,-0.055492
-4.6561,1.8603,14.539,0.92448,-0.38114,0.0087153
-4.6607,1.8744,14.947,0.88078,-0.47251,0.031182
-4.6434,1.8985,15.337,0.88334,-0.46721,-0.037659
-4.617,1.7799,15.705,0.93419,-0.35517,-0.033668
-4.6945,1.8982,16.107,0.8951,-0.43765,0.085174
-4.6614,1.8457,16.519,0.95496,-0.28557,-0.080611
-4.6303,1.9382,16.927,0.9855,-0.14778,-0.083383
-4.5806,1.7785,17.351,0.95887,-0.24545,0.14258
-4.6504,1.8067,17.665,0.93793,-0.34599,0.024039
-4.6096,1.8308,17.958,0.91107,-0.40587,-0.072208
-4.5654,1.8938,18.382,0.94818,-0.30405,0.092275
-4.6624,1.91,18.738,0.91614,-0.39102,0.08829
-4.5937,1.8221,19.294,0.95684,-0.22499,0.18395
-4.6026,1.8377,19.549,0.95684,-0.22499,0.18395
-4.6512,1.9172,20.089,0.9393,-0.34248,0.020639
-4.8306,1.567,0.93839,0.92929,-0.36295,-0.068494
-4.6909,1.649,1.4375,0.92685,-0.37461,-0.024861
-4.7574,1.4766,1.736,0.92375,-0.37738,-0.065352
-4.7561,1.616,2.2447,0.95132,-0.26524,0.15698
-4.8258,1.5873,2.5138,0.9718,-0.2208,0.08274
-4.7828,1.6301,2.9083,0.95502,-0.29112,0.056403
-4.8367,1.6279,3.3151,0.93692,-0.34577,-0.051236
-4.7481,1.6333,3.7091,0.90689,-0.34999,-0.23465
-4.7343,1.5586,4.0805,0.88863,-0.44256,-0.12034
-4.7208,1.5745,4.4851,0.88006,-0.472,0.051943
-4.7631,1.5096,4.882,0.97584,-0.21255,0.050562
-4.8263,1.5007,5.1968,0.96697,-0.23941,0.087436
-4.7726,1.5502,5.5993,0.95835,-0.23434,-0.16324
-4.6617,1.4931,5.968,0.96246,-0.27032,0.024321
-4.7916,1.5781,6.4531,0.98751,-0.14577,0.059734
-4.775,1.4295,6.8654,0.97137,-0.20442,-0.12109
-4.7037,1.5416,7.2017,0.97696,-0.20274,-0.066661
-4.7297,1.485,7.6461,0.96988,-0.23735,0.054814
-4.7653,1.6248,7.9342,0.97081,-0.23981,-0.0052788
-4.695,1.5838,8.3657,0.97541,-0.21947,-0.020112
-4.7338,1.6082,8.8296,0.9949,0.10015,-0.012014
-4.6943,1.5571,9.1988,0.99281,-0.11393,0.036754
-4.788,1.4889,9.6085,0.94238,-0.33404,-0.018141
-4.7056,1.497,9.9607,0.91708,-0.38777,0.09266
-4.785,1.5436,10.3,0.91336,-0.40593,0.031576
-4.7342,1.4732,10.738,0.94419,-0.32789,-0.031492
-4.7347,1.5472,10.97,0.93133,-0.35885,0.061981
-4.7741,1.5506,11.503,0.978,-0.19026,-0.08559
-4.6965,1.4991,11.89,0.92891,-0.35272,-0.11278
-4.6818,1.5847,12.178,0.96331,-0.25998,0.066704
-4.7753,1.5474,12.627,0.95629,-0.28945,0.041585
-4.7213,1.5184,12.978,0.9689,-0.2473,0.0090428
-4.7868,1.5647,13.419,0.95041,-0.31078,0.011516
-4.7818,1.5392,13.824,0.99376,-0.11031,-0.016701
-4.8213,1.5454,14.216,0.98318,-0.17804,0.040725
-4.7764,1.529,14.593,0.95561,-0.29078,-0.047405
-4.7641,1.5931,14.839,0.95536,-0.2939,0.030197
-4.8372,1.5331,15.373,0.85865,-0.45035,-0.24475
-4.679,1.4814,15.773,0.85745,-0.51455,-0.0040648
-4.8129,1.5692,16.142,0.98022,-0.1976,0.011361
-4.7747,1.4917,16.531,0.98437,-0.17579,0.010471
-4.7997,1.4512,16.919,0.95264,-0.3037,0.015755
-4.672,1.5259,17.275,0.89811,-0.43296,0.077071
-4.7991,1.6219,17.627,0.90257,-0.41018,0.13086
-4.8201,1.503,18.072,0.88436,-0.45988,-0.080096
-4.7185,1.6065,18.444,0.89109,-0.44946,0.062817
-4.7985,1.5699,18.846,0.9443,-0.30516,-0.12321
-4.6099,1.5416,19.221,0.91829,-0.39586,0.0062793
-4.8317,1.5808,19.53,0.90779,-0.32699,0.26267
-4.7355,1.5698,19.994,0.9212,-0.38422,0.061406
-4.8726,1.2214,1.0159,0.9922,-0.12463,-0.0001517
-4.8874,1.1881,1.408,0.97548,-0.20869,-0.069962
-4.8406,1.257,1.7945,0.95384,-0.29598,-0.050828
-4.7636,1.3411,2.1993,0.97099,-0.23217,0.057293
-4.8429,1.272,2.6343,0.97446,-0.20353,0.094888
-4.8725,1.2593,2.837,0.99818,-0.059343,0.010811
-4.8755,1.2413,3.2305,0.98737,-0.14709,0.058816
-4.8513,1.3094,3.729,0.97245,-0.23013,-0.037167
-4.8612,1.2408,4.1287,0.96438,-0.25874,-0.055051
-4.8269,1.2451,4.5228,0.9353,-0.34283,-0.087627
-4.7299,1.2542,4.935,0.98898,-0.14492,0.030162
-4.8216,1.2801,5.3216,0.96512,-0.23195,0.12139
-4.8794,1.1911,5.6492,0.97329,-0.2295,-0.0064135
-4.8451,1.2718,6.0345,0.96439,-0.26377,-0.019478
-4.7584,1.2139,6.3914,0.99839,-0.022698,-0.051973
-4.8486,1.2801,6.7991,0.97213,-0.23365,-0.019536
-4.7794,1.2336,7.2586,0.9639,-0.26625,-0.00038388
-4.8284,1.2451,7.64,0.93405,-0.34976,0.072199
-4.7842,1.2493,7.9926,0.97104,-0.2351,0.042639
-4.8494,1.2235,8.4331,0.9521,-0.30255,0.044499
-4.8779,1.1495,8.858,0.96715,-0.25155,-0.036657
-4.8084,1.2665,9.1869,0.95835,-0.27682,-0.070242
-4.7936,1.3091,9.5415,0.97787,-0.20317,0.049814
-4.8283,1.1655,9.8925,0.98234,-0.15241,0.10857
-4.9198,1.2662,10.305,0.93939,-0.34207,0.023329
-4.8053,1.1915,10.726,0.94224,-0.32411,-0.084528
-4.857,1.2777,11.041,0.95489,-0.29662,0.014268
-4.7745,1.3164,11.409,0.9349,-0.3549,0.003384
-4.8567,1.2453,11.873,0.92767,-0.37112,-0.041085
-4.8194,1.213,12.218,0.90382,-0.42772,-0.012807
-4.8273,1.3012,12.667,0.96514,-0.24757,-0.084975
-4.8486,1.2476,12.979,0.96169,-0.27388,-0.011721
-4.838,1.216,13.355,0.98399,-0.16402,-0.069664
-4.7723,1.1947,13.763,0.97723,-0.18819,-0.098024
-4.7299,1.2452,14.157,0.99349,-0.064435,0.093946
-4.8623,1.1745,14.511,0.97951,-0.17317,0.10279
-4.86,1.2418,14.915,0.97464,-0.22011,-0.040396
-4.9125,1.2819,15.377,0.98826,-0.14821,0.037075
-4.9404,1.2294,15.697,0.9301,-0.36729,0.0025993
-4.9235,1.2763,16.11,0.92566,-0.36096,-0.11335
-4.7305,1.2537,16.466,0.98605,-0.13868,-0.092061
-4.8345,1.2877,16.937,0.95927,-0.27307,-0.072289
-4.8506,1.1863,17.292,0.92246,-0.38041,0.065912
-4.8537,1.2283,17.599,0.95379,-0.27855,0.11265
-4.9064,1.215,18.104,0.9959,-0.089694,0.011715
-4.9078,1.2651,18.405,0.97308,-0.21353,-0.08672
-4.8619,1.1544,18.778,0.98758,-0.15396,-0.031263
-4.8029,1.2666,19.268,0.90781,-0.28837,0.30451
-4.8404,1.2087,19.634,0.9651,-0.19856,0.17078
-4.9492,1.2641,20.003,0.96676,-0.2412,-0.084855
-4.9631,0.94309,0.98961,0.99413,-0.10795,-0.0076499
-4.9256,0.88291,1.4088,0.99528,-0.058455,-0.077459
-4.8721,0.94359,1.7418,0.98057,-0.19591,0.010148
-4.9509,0.91444,2.0979,0.9794,-0.19795,0.039778
-4.9317,0.90212,2.5077,0.98978,-0.13627,-0.042006
-4.8302,0.90293,2.9957,0.96733,-0.12707,0.21938
-5.0134,0.87767,3.3555,0.9744,-0.20046,0.10174
-4.9029,0.89561,3.6764,0.97198,-0.21107,-0.10345
-4.8996,0.91408,4.1357,0.99034,-0.12346,0.063187
-4.9876,0.91853,4.5752,0.99187,-0.12449,-0.026215
-4.8786,0.90571,4.8377,0.95833,-0.26721,-0.10101
-4.9157,0.94783,5.1841,0.93073,-0.35074,0.10355
-4.9286,0.94202,5.6373,0.97338,-0.22882,-0.012949
-4.8817,0.98558,6.0556,0.97157,-0.16214,-0.17254
-4.7837,0.91742,6.4674,0.97183,-0.22186,0.079493
-4.9399,0.98664,6.7759,0.97299,-0.19089,0.12985
-4.9024,0.86261,7.1688,0.96138,-0.27519,0.0048379
-4.9808,0.9825,7.6153,0.9889,-0.14709,-0.020977
-4.9279,0.90086,8.0158,0.95765,-0.28009,-0.066722
-4.9263,0.9191,8.3666,0.97771,-0.20418,0.048891
-4.9119,0.91199,8.7858,0.96598,-0.25789,-0.019423
-4.906,0.91235,9.0939,0.9652,-0.2449,-0.0917
-4.8613,0.93605,9.4544,0.96105,-0.26903,-0.063242
-4.8328,0.94937,9.9191,0.96207,-0.21947,0.16203
-4.9928,0.90001,10.34,0.99596,-0.085352,-0.027958
-4.9607,0.92532,10.653,0.9743,-0.21279,-0.07386
-4.923,0.92126,11.074,0.99661,-0.082298,-0.0015818
-4.9721,0.97609,11.436,0.9729,-0.21743,0.078639
-4.9346,1.0032,11.889,0.98584,-0.16081,-0.047456
-5.0016,0.90093,12.227,0.99477,-0.10136,0.012526
-4.9113,0.9383,12.682,0.96302,-0.25611,0.083715
-4.863,1.0188,12.982,0.9468,-0.32174,0.0070981
-4.9183,0.91839,13.383,0.97342,-0.22172,-0.05732
-4.8748,1.0067,13.751,0.97495,-0.20405,-0.088544
-4.8618,0.87811,14.092,0.95944,-0.28154,0.014553
-4.9461,0.88776,14.624,0.98427,-0.16792,-0.054887
-4.8824,0.92911,14.962,0.98748,-0.14953,0.050233
-4.9805,0.93733,15.395,0.99761,-0.051655,0.045882
-4.9019,0.9381,15.738,0.9996,-0.0042196,-0.028082
-4.9348,0.95908,16.077,0.99806,0.045303,-0.042615
-4.8699,0.84755,16.559,0.94088,-0.33078,-0.072978
-4.8673,0.95352,16.945,0.96968,-0.21765,0.11117
-4.9539,0.97361,17.323,0.96257,-0.26526,0.055685
-4.9428,0.85188,17.72,0.98041,-0.19421,-0.032837
-4.9315,1.0022,18.026,0.99547,-0.042048,-0.085238
-4.8555,0.91258,18.409,0.99058,-0.13599,-0.015884
-4.9598,0.94673,18.937,0.95697,-0.28671,0.044677
-4.8847,0.97933,19.265,0.92781,-0.37148,0.034169
-4.9713,0.99571,19.606,0.98477,-0.081511,0.1536
-4.8777,0.96353,20.09,0.98117,-0.14656,-0.12578
-4.9275,0.64136,1.0137,0.99432,-0.10422,-0.021474
-4.9523,0.68126,1.4039,0.97844,-0.20358,0.03487
-4.9883,0.5899,1.812,0.99086,-0.13464,0.0083963
-4.9604,0.63636,2.181,0.99533,-0.08975,-0.035608
-4.9647,0.54879,2.6237,0.9685,-0.24457,-0.046766
-4.956,0.55873,3.0578,0.95878,-0.28411,0.0053074
-5.016,0.52403,3.1993,0.95872,-0.18364,0.21711
-4.9802,0.60644,3.7513,0.91079,-0.34111,-0.23261
-4.981,0.60207,4.1022,0.9838,-0.17825,-0.019227
-4.923,0.62185,4.3991,0.98352,-0.099811,0.15075
-4.9128,0.58834,4.8431,0.98639,-0.14996,0.06738
-5.0257,0.62819,5.1928,0.98962,-0.14337,0.010078
-4.9856,0.62401,5.6814,0.99347,-0.075257,0.085744
-5.0548,0.59176,5.9683,0.97312,-0.15661,-0.16887
-4.8876,0.68063,6.3338,0.96558,-0.23797,-0.10501
-4.9582,0.60818,6.721,0.9731,-0.21492,0.08296
-5.0327,0.54849,7.2044,0.99008,-0.13991,0.01257
-4.971,0.60863,7.5165,0.99409,-0.078486,0.074974
-4.8811,0.72288,7.9775,0.99743,-0.069539,-0.017271
-5.0033,0.5964,8.3586,0.98716,-0.15607,0.034055
-5.0075,0.65928,8.8172,0.99917,-0.040051,0.0080559
-4.958,0.52405,9.1492,0.99451,-0.053348,0.090007
-4.9983,0.56106,9.6046,0.97266,-0.23078,0.02589
-4.9779,0.67086,9.9552,0.97221,-0.21662,0.088795
-5.013,0.56458,10.328,0.99905,-0.0024201,-0.04353
-4.9511,0.61358,10.657,0.98708,-0.10928,-0.11721
-4.9237,0.6408,11.083,0.996,-0.08933,0.0018725
-4.9318,0.64637,11.382,0.99212,-0.026683,0.12242
-4.8926,0.66145,11.888,0.9984,-0.04866,0.028717
-4.9209,0.58743,12.244,0.98782,0.027538,0.15318
-4.9597,0.6457,12.645,0.98893,-0.13376,0.064195
-5.0341,0.70279,13.033,0.99648,-0.080374,-0.02375
-4.9442,0.53833,13.377,0.99532,-0.062896,-0.073362
-4.9074,0.5971,13.723,0.98507,-0.14189,-0.097471
-4.9548,0.67301,14.351,0.98388,-0.14067,0.11042
-4.9633,0.63871,14.586,0.98966,-0.12578,-0.068915
-4.9399,0.60038,14.947,0.97765,-0.20283,-0.055347
-4.9549,0.58677,15.314,0.99351,-0.10913,-0.032007
-4.9165,0.59324,15.707,0.99054,-0.04262,-0.13042
-4.8976,0.57616,16.133,0.99027,-0.088505,0.10742
-4.955,0.62336,16.489,0.94061,-0.31137,0.13529
-4.96,0.60509,16.859,0.98345,-0.16798,0.067893
-5.0083,0.63624,17.299,0.99693,0.057303,0.053397
-5.0144,0.49858,17.691,0.99954,-0.028398,0.010992
-4.9678,0.63999,18.097,0.99096,-0.099659,-0.089783
-5.0161,0.66277,18.457,0.99242,-0.122,-0.014545
-4.9604,0.55577,18.798,0.99804,-0.021532,0.058816
-5.0828,0.5518,19.261,0.9727,-0.22746,-0.045938
-4.9071,0.50856,19.596,0.96636,0.11735,-0.22888
-4.88,0.63333,20.021,0.98736,-0.064136,-0.14497
-5.007,0.32709,1.0401,0.98087,-0.19421,-0.013097
-5.0043,0.32776,1.3433,0.98087,-0.19421,-0.013097
-4.9585,0.27199,1.8824,0.99996,-0.0080477,0.0027927
-4.9989,0.33102,2.1367,0.99996,-0.0076665,-0.0055406
-5.0995,0.41026,2.6518,0.99944,-0.014577,-0.030134
-5.0329,0.23857,2.9451,0.99227,0.0025192,-0.12403
-5.0091,0.30903,3.3519,0.98664,0.074794,0.14475
-5.123,0.32753,3.7668,0.99058,-0.12106,-0.064063
-4.9296,0.41468,4.1461,0.92022,-0.38192,-0.085566
-5.0348,0.40518,4.4389,0.97926,-0.18354,0.085764
-5.0456,0.36723,4.8476,0.99512,-0.071122,-0.068428
-4.9335,0.30836,5.2784,0.99826,0.058208,-0.0098012
-5.0359,0.39238,5.7975,0.99271,0.11653,0.0309
-4.974,0.27653,6.1038,0.99974,-0.01626,-0.016203
-5.0889,0.27183,6.4824,0.98241,-0.18665,-0.0062088
-4.9239,0.28935,6.7855,0.99136,-0.069742,-0.11109
-4.9748,0.27042,7.2537,0.99339,-0.077777,0.08438
-5.0196,0.24456,7.6296,0.98879,0.095047,0.11512
-5.0586,0.23286,8.0122,0.99573,0.091464,-0.01285
-5.0779,0.26806,8.4166,0.99028,-0.057047,-0.12685
-4.9084,0.37912,8.7521,0.98837,-0.029016,-0.14926
-4.951,0.33227,9.0796,0.99239,-0.051624,0.11179
-5.033,0.3473,9.487,0.99862,-0.049127,0.018556
-5.0065,0.33158,10.044,0.98954,0.13316,0.055571
-4.9802,0.26769,10.27,0.98053,0.17596,0.087214
-5.0403,0.24703,10.651,0.99688,0.038856,0.068731
-4.9504,0.33452,11.188,0.99593,-0.078062,0.044949
-4.9913,0.34465,11.432,0.99412,-0.052615,0.094626
-5.0106,0.3224,11.773,0.99341,-0.09958,-0.056695
-4.9459,0.28661,12.245,0.99951,-0.00036723,0.031341
-5.0584,0.39893,12.638,0.99977,0.0063895,0.02056
-4.9242,0.32845,13.054,0.99199,-0.03427,-0.12155
-5.0358,0.29661,13.468,0.99805,-0.06221,-0.0058649
-4.9285,0.35072,13.91,0.96195,-0.25749,-0.091401
-4.9811,0.31644,14.169,0.98483,-0.16845,0.041723
-5.0135,0.22578,14.581,0.99865,-0.050094,0.013696
-5.0384,0.26013,14.994,0.9965,-0.068316,0.048209
-5.0339,0.34573,15.407,0.98027,-0.086877,-0.17753
-4.8877,0.24093,15.753,0.99207,-0.040726,-0.11893
-4.9471,0.30005,16.095,0.96297,-0.15725,0.219
-5.0594,0.31825,16.425,0.9787,-0.11169,0.17223
-4.932,0.40299,16.948,0.99768,0.067976,-0.0027167
-4.8988,0.36787,17.401,0.99521,0.019548,0.095739
-5.0113,0.30567,17.606,0.98668,-0.037806,0.1582
-4.9958,0.32816,18.128,0.98523,0.15956,-0.062105
-4.9108,0.35649,18.396,0.99939,0.029496,0.01885
-5.0134,0.29823,18.79,0.99212,-0.002543,0.12525
-5.0123,0.39206,19.182,0.99712,0.018438,0.073588
-5.0255,0.34125,19.587,0.97614,0.19863,-0.087791
-4.9543,0.26878,20.013,0.99249,-0.12233,-0.0010665
-5.0837,0.050541,1.0257,0.99259,0.087366,0.084404
-5.0228,0.11221,1.3697,0.99043,-0.081792,-0.11113
-4.9797,-0.054863,1.7999,0.99316,-0.054042,-0.10352
-4.981,0.015782,2.2534,0.99607,0.087658,0.012455
-4.9744,0.025633,2.5228,0.98966,0.10947,0.092712
-5.004,0.0018344,2.9337,0.98299,0.17373,-0.059548
-4.9451,0.056898,3.3432,0.99957,-0.0032408,0.02903
-5.0592,-0.062375,3.7523,0.98125,0.17097,0.089016
-5.039,-0.051295,4.1573,0.99645,-0.079739,-0.027042
-5.0766,0.028236,4.4909,0.9965,0.077126,0.032212
-5.0408,-0.043804,4.8083,0.98511,0.12201,-0.12115
-4.9431,0.021739,5.2926,0.99635,-0.029108,-0.08026
-4.9566,-0.005236,5.691,0.99637,0.08445,0.010497
-4.947,-0.056135,6.0063,0.99139,-0.098235,0.086544
-5.0368,-0.045937,6.4766,0.96269,0.085921,-0.2566
-4.9942,-0.057406,6.8513,0.99867,-0.0045266,0.05138
-5.0463,0.057492,7.1919,0.99865,0.020313,-0.047784
-4.9294,-0.069938,7.5842,0.99543,0.039947,-0.086718
-4.9741,-0.0542,7.9239,0.99273,0.044682,0.11177
-4.9585,0.015579,8.3872,0.99375,0.1017,0.045998
-5.0355,0.016013,8.7232,0.99072,-0.059695,-0.12211
-5.0615,0.039166,9.1875,0.99865,0.025549,-0.045166
-4.9565,0.0087709,9.5887,0.97953,-0.096972,-0.17638
-4.9078,-0.017482,9.975,0.9964,0.07293,-0.043335
-4.9139,0.017126,10.309,0.9959,0.055345,0.07149
-4.9899,0.067394,10.662,0.99012,0.11403,0.081582
-4.9765,0.03184,11.069,0.99893,-0.044333,-0.012844
-4.9793,0.049981,11.536,0.99849,-0.049816,0.023293
-4.97,0.051462,11.868,0.99421,0.083065,-0.068101
-4.9437,0.051908,12.328,0.9833,-0.061662,0.17125
-5.0961,-0.086098,12.607,0.98698,0.086783,0.13542
-5.0896,-0.024674,12.925,0.96511,0.16066,-0.20676
-4.9398,0.035035,13.372,0.99887,-0.042659,0.020943
-5.0621,-0.0033049,13.825,0.98509,0.15817,0.067675
-5.0271,-0.021059,14.176,0.99891,-0.037423,0.027885
-5.0344,0.025226,14.597,0.9981,0.048066,-0.038667
-4.9708,-0.01617,14.97,0.98369,0.17707,0.031492
-5.0393,0.012824,15.306,0.99305,-0.048297,-0.10732
-4.947,0.092287,15.822,0.98815,-0.098282,0.1179
-4.9927,0.013023,16.216,0.98898,0.016096,0.14716
-5.0204,-0.0077503,16.53,0.98816,0.13591,-0.07117
-4.9333,-0.10645,16.947,0.99866,0.051041,-0.0088631
-4.9815,-0.013248,17.264,0.97373,-0.15629,0.1656
-5.0671,0.018235,17.677,0.99768,-0.045074,-0.051012
-4.9018,0.018437,18.073,0.99308,-0.068667,-0.095236
-5.019,-0.11848,18.469,0.98626,-0.16177,0.033415
-4.9697,-0.033566,18.871,0.99929,0.0015474,0.037539
-5.0237,0.074271,19.204,0.99168,-0.050747,0.11828
-4.8756,0.04346,19.686,0.99534,-0.039887,0.087836
-5.0348,-0.038057,19.969,0.9961,0.068607,0.05556
-4.8843,-0.32794,1.0275,0.99092,0.1197,0.061162
-5.0355,-0.28624,1.3288,0.99092,0.1197,0.061162
-5.0486,-0.29485,1.8157,0.99708,0.0025733,-0.076322
-4.9176,-0.3074,2.2017,0.99774,0.054314,-0.039513
-5.0345,-0.35208,2.5718,0.99736,0.01754,0.070402
-4.9608,-0.30133,2.9468,0.99662,0.076671,-0.029639
-5.0145,-0.37701,3.2864,0.99774,-0.0037636,0.067042
-5.0111,-0.36328,3.7041,0.97505,0.21539,-0.053677
-4.9877,-0.24917,4.1554,0.97239,0.23067,-0.035298
-4.9846,-0.28254,4.4756,0.98627,0.16367,0.022061
-4.9806,-0.32432,4.9147,0.9926,0.11816,0.027814
-4.9658,-0.30886,5.2827,0.99886,-0.017961,-0.044159
-4.976,-0.27907,5.7468,0.9839,-0.033748,0.17553
-5.0081,-0.40884,6.0803,0.99236,-0.12172,-0.02018
-4.9954,-0.2951,6.4366,0.98222,0.082515,-0.1686
-4.9019,-0.27376,6.8392,0.96968,0.24412,0.011191
-5.0215,-0.30587,7.1923,0.98673,0.1054,0.12352
-5.0268,-0.22319,7.6243,0.99758,-0.06933,0.0046904
-5.0251,-0.3339,7.9739,0.99656,-0.045763,0.069043
-5.0377,-0.31322,8.3984,0.99767,-0.061003,-0.030402
-4.9929,-0.35767,8.8546,0.98182,0.14011,-0.12809
-4.9732,-0.32648,9.2216,0.96381,0.22546,0.14227
-5.0581,-0.29676,9.5684,0.99946,-0.017354,-0.027737
-5.0048,-0.22283,9.9281,0.99345,-0.087091,-0.073945
-4.9861,-0.37743,10.351,0.99965,0.025121,-0.0085507
-4.9907,-0.26359,10.789,0.99932,0.035482,-0.0097548
-4.9876,-0.34138,11.052,0.99894,0.028403,0.036355
-5.0261,-0.2516,11.464,0.99932,-0.0049298,-0.036589
-4.9405,-0.3067,11.836,0.99896,-0.039022,-0.023488
-5.0045,-0.3161,12.268,0.99649,0.056808,0.061534
-4.9206,-0.31275,12.67,0.95344,0.29075,-0.080123
-4.8824,-0.43112,13.004,0.97765,0.16644,0.12847
-4.9768,-0.31745,13.459,0.99673,-0.079419,-0.014964
-4.846,-0.33027,13.709,0.97725,0.19929,0.072586
-4.9476,-0.32371,14.156,0.95915,0.24519,0.1411
-5.0175,-0.29026,14.577,0.98477,0.16724,-0.047515
-4.9273,-0.33611,14.912,0.99908,-0.042878,0.0026821
-5.0464,-0.3035,15.345,0.99014,0.13499,-0.037373
-4.9676,-0.33111,15.74,0.99822,0.032617,-0.049937
-4.9906,-0.22752,16.184,0.99716,0.074877,0.0082209
-4.9562,-0.39253,16.537,0.98392,0.17837,0.0087842
-4.9742,-0.30865,16.916,0.99844,0.039823,0.039247
-4.9853,-0.37329,17.32,0.99927,0.0080568,-0.037292
-4.9535,-0.29099,17.658,0.98454,0.17232,-0.031555
-4.9902,-0.30259,18.074,0.99583,0.015971,0.089792
-4.9883,-0.31747,18.396,0.9725,-0.042732,0.22896
-4.9801,-0.272,18.889,0.99929,-0.037435,-0.0048214
-5.0509,-0.28327,19.223,0.99953,0.021039,0.022121
-4.9818,-0.25607,19.697,0.99596,-0.012001,-0.088972
-4.8595,-0.37726,19.984,0.99596,-0.012001,-0.088972
-4.9836,-0.63904,1.0591,0.99012,0.12197,0.069137
-4.9691,-0.57634,1.3872,0.96309,0.26109,0.065431
-5.0306,-0.61828,1.7788,0.96444,0.26431,-0.0002048
-4.93,-0.66995,2.2338,0.99275,0.091337,-0.078166
-4.9702,-0.69264,2.6322,0.97812,0.20343,-0.043615
-4.9451,-0.60177,2.9691,0.96829,0.2491,-0.01918
-4.9406,-0.66792,3.3198,0.98489,0.17024,-0.031655
-4.9397,-0.65782,3.6554,0.97894,0.19244,-0.068138
-4.988,-0.76185,4.2836,0.84522,0.2269,-0.48386
-4.9457,-0.70554,4.4725,0.98768,0.07238,-0.13877
-4.9357,-0.55545,4.8133,0.98851,0.14121,0.053967
-5.0032,-0.61449,5.2794,0.98559,0.1682,-0.01816
-4.9164,-0.65957,5.6426,0.97932,0.19368,0.058472
-5.0537,-0.49249,6.0259,0.99464,-0.0058631,0.10326
-4.9973,-0.68395,6.3765,0.96236,0.22014,-0.15941
-4.8636,-0.65863,6.829,0.99416,0.10687,0.01493
-4.9862,-0.5736,7.1911,0.97941,0.085451,0.18293
-4.9781,-0.6007,7.5564,0.9758,0.21749,-0.022732
-4.9905,-0.64106,7.9405,0.99355,0.11243,0.014722
-4.9895,-0.62421,8.3934,0.99224,0.12413,0.0072369
-5.0115,-0.5485,8.7666,0.98112,0.11714,-0.1539
-4.8517,-0.65478,9.1814,0.98003,0.19791,0.019215
-5.0233,-0.62885,9.5259,0.96298,0.21536,0.16213
-4.9627,-0.6772,9.9062,0.96962,0.21932,-0.10832
-4.9094,-0.6686,10.365,0.99978,0.020615,0.0029651
-4.9515,-0.60439,10.673,0.99708,0.058744,0.048729
-4.977,-0.63193,11.134,0.9979,0.059314,-0.026035
-4.9782,-0.58413,11.441,0.98342,0.17821,0.03368
-4.995,-0.57008,11.864,0.99694,0.077923,0.0065039
-4.9568,-0.64217,12.214,0.99495,0.099391,0.014149
-4.9789,-0.62054,12.699,0.98881,-0.1469,-0.025929
-4.9499,-0.58121,13.08,0.99755,0.0072623,0.069572
-5.0187,-0.67439,13.349,0.99186,0.12653,0.014527
-4.8949,-0.6546,13.802,0.9749,-0.19802,-0.10182
-4.9499,-0.63424,14.232,0.998,0.037169,0.051225
-4.9022,-0.69056,14.557,0.98846,0.095739,0.11736
-5.0497,-0.57031,14.971,0.99159,0.11952,0.049543
-4.8998,-0.6011,15.354,0.97686,0.17967,-0.116
-4.9128,-0.64953,15.738,0.99401,0.096314,0.051641
-4.9736,-0.56387,16.113,0.99165,0.12851,-0.010527
-4.8964,-0.65995,16.513,0.98751,0.15368,-0.034641
-4.9152,-0.67679,16.868,0.98385,0.17766,-0.021773
-4.9862,-0.53154,17.365,0.98559,0.082022,0.14793
-4.9471,-0.59613,17.633,0.98886,-0.061745,-0.13541
-4.9006,-0.60591,18.018,0.97827,0.16795,0.1216
-5.0275,-0.68693,18.351,0.97566,0.15207,0.15801
-5.0398,-0.61939,18.845,0.99536,0.091349,-0.030312
-4.9862,-0.64168,19.135,0.987,0.14998,-0.057722
-4.9994,-0.627,19.605,0.99237,-0.06319,-0.10592
-4.9182,-0.50425,20.01,0.98356,0.057878,-0.17106
-4.905,-0.95724,0.97266,0.96505,0.2537,-0.06574
-4.8679,-0.91344,1.3949,0.96714,0.25303,-0.024887
-4.922,-0.87543,1.7002,0.95018,0.23817,0.20105
-4.8712,-0.91413,2.1725,0.98922,0.14257,-0.033542
-4.8644,-0.9674,2.547,0.97905,0.18819,0.077702
-4.7935,-1.023,2.9935,0.97535,0.18746,0.11637
-4.9365,-0.94108,3.3271,0.99139,0.1046,0.0788
-4.8621,-0.95569,3.7082,0.99146,0.085268,-0.098666
-4.9733,-0.98539,4.1919,0.86411,0.47438,-0.16815
-4.9722,-0.95663,4.427,0.90296,0.39361,-0.17241
-4.8897,-0.87097,4.8215,0.9993,0.019675,0.031703
-4.7521,-1.0366,5.3454,0.97994,0.19875,0.014434
-4.8514,-0.88812,5.6085,0.9727,0.23172,-0.012371
-4.8347,-0.99182,6.0244,0.97674,0.21311,-0.023642
-4.8184,-0.98726,6.4336,0.95195,0.30606,-0.010913
-4.8947,-0.90801,6.8188,0.9835,0.1692,0.064058
-4.9711,-0.91106,7.2784,0.97085,0.23432,-0.050428
-4.8124,-1.0229,7.4853,0.96722,0.248,-0.054595
-4.9572,-0.94792,8.0317,0.95256,0.3038,-0.01814
-4.959,-0.91357,8.3587,0.96039,0.27863,-0.0044747
-4.9345,-0.99602,8.72,0.9592,0.27883,-0.046762
-4.878,-0.95301,9.1494,0.99682,0.07935,-0.0077377
-4.9097,-0.98699,9.5396,0.97753,0.20887,-0.028272
-4.8414,-0.89029,9.8179,0.96448,0.22193,-0.14324
-4.9562,-0.92112,10.324,0.99979,-0.020227,0.0020985
-4.9718,-0.93182,10.686,0.98508,0.12013,-0.12322
-4.9914,-0.98603,11.111,0.95309,0.29901,-0.047053
-4.8895,-0.94378,11.479,0.99712,0.075015,-0.01102
-4.9165,-0.94973,11.833,0.98232,0.18591,-0.022119
-4.9567,-1.0056,12.259,0.9907,0.10952,0.080768
-4.9945,-0.94095,12.674,0.98837,0.14513,-0.045424
-4.9045,-1.0273,13.008,0.983,0.11751,-0.14107
-4.8529,-0.98348,13.411,0.95716,0.28814,-0.028795
-4.984,-0.93385,13.876,0.99202,0.086158,0.092045
-4.9063,-0.92193,14.138,0.99922,0.0072003,0.03892
-4.9634,-0.9089,14.518,0.99917,0.040382,0.0050477
-4.9216,-0.98187,15.051,0.9753,0.14158,-0.16953
-4.8833,-1.0115,15.307,0.99692,0.0091381,0.077911
-4.9294,-0.92841,15.609,0.99775,-0.045593,0.049148
-4.8997,-0.97958,16.13,0.98366,0.11903,-0.13508
-4.866,-0.92531,16.497,0.9998,-0.019249,0.0052656
-4.8784,-0.95238,16.901,0.99892,0.045499,0.0091441
-4.8235,-0.93422,17.224,0.98371,0.10975,0.14237
-4.9955,-0.94148,17.612,0.99917,-0.009216,0.039602
-4.8742,-0.88139,18.057,0.96079,0.27642,-0.021769
-4.9166,-0.97682,18.499,0.92272,0.38001,0.06471
-4.9464,-0.93851,18.811,0.92453,0.37372,-0.074719
-4.8869,-0.9448,19.225,0.94796,0.30816,0.080093
-4.9946,-0.94335,19.668,0.95618,0.28789,0.053342
-4.9514,-0.92036,19.991,0.97675,0.16969,-0.13104
-4.8037,-1.287,0.96921,0.97895,0.1975,0.051461
-4.7951,-1.2709,1.4694,0.98031,0.19285,0.042341
-4.8767,-1.3132,1.8169,0.95589,0.2902,0.045464
-4.8307,-1.2273,2.2587,0.98241,0.17659,-0.060727
-4.8622,-1.1884,2.5093,0.98563,0.16675,-0.026935
-4.7978,-1.2676,2.8885,0.98727,0.10908,-0.11574
-4.8962,-1.2586,3.3607,0.99593,0.045428,0.077893
-4.8748,-1.2721,3.6774,0.94374,0.23053,-0.23707
-4.7285,-1.2713,4.0923,0.90969,0.39079,-0.14054
-4.7399,-1.2055,4.4272,0.8855,0.44085,0.14679
-4.9466,-1.2183,4.9154,0.9864,0.10318,-0.12793
-4.8462,-1.3277,5.2769,0.99131,0.036536,-0.12638
-4.8998,-1.2133,5.6071,0.99415,0.070796,0.081612
-4.8297,-1.2445,6.0576,0.99345,0.10985,-0.031412
-4.7854,-1.2615,6.4444,0.99804,0.057073,0.025501
-4.8756,-1.1989,6.9169,0.96157,0.26486,0.0723
-4.8051,-1.2696,7.1887,0.97222,0.22012,-0.079559
-4.8638,-1.2607,7.4828,0.97607,0.20456,-0.073728
-4.7901,-1.2975,7.9511,0.95769,0.28057,-0.064121
-4.7899,-1.2499,8.4248,0.9686,0.24416,0.046871
-4.8584,-1.2543,8.6578,0.96376,0.2476,-0.099311
-4.7633,-1.2042,9.1132,0.94149,0.3357,-0.029967
-4.871,-1.2295,9.5032,0.9456,0.29424,0.13879
-4.8572,-1.2423,9.8141,0.97744,0.17434,-0.11927
-4.9424,-1.1556,10.369,0.97555,0.21574,-0.041824
-4.7913,-1.2532,10.785,0.94505,0.31525,-0.086615
-4.8501,-1.2064,11.153,0.94119,0.32695,0.085236
-4.977,-1.2832,11.526,0.9646,0.25258,-0.075788
-4.7567,-1.2791,11.871,0.93769,0.34624,-0.029299
-4.9033,-1.2799,12.269,0.90551,0.37601,0.19666
-4.9198,-1.2322,12.53,0.93929,0.33662,0.06648
-4.828,-1.2358,13.128,0.95203,0.2904,-0.096433
-4.8946,-1.1857,13.361,0.94829,0.31623,-0.027467
-4.8285,-1.2088,13.76,0.93731,0.33896,0.080933
-4.9116,-1.1778,14.158,0.95814,0.27905,0.063964
-4.9052,-1.2326,14.589,0.92468,0.38051,0.013712
-4.8447,-1.2775,15.061,0.95825,0.28527,-0.019423
-4.9374,-1.1959,15.31,0.99463,0.073712,0.072592
-4.9349,-1.1996,15.74,0.92501,0.37508,-0.060587
-4.8942,-1.2298,16.15,0.98843,0.1501,-0.021768
-4.9232,-1.2877,16.585,0.97869,0.19087,-0.07571
-4.8436,-1.3144,16.879,0.95915,0.28162,-0.027006
-4.9167,-1.1999,17.218,0.97177,0.21945,0.086607
-4.9314,-1.2664,17.632,0.90359,0.41452,-0.10819
-4.7714,-1.2171,18.051,0.97554,0.1918,-0.10739
-4.8338,-1.2354,18.423,0.96405,0.25729,0.066434
-4.806,-1.1532,18.789,0.95481,0.29406,-0.043329
-4.7986,-1.3108,19.266,0.95063,0.29581,0.093816
-4.8179,-1.3248,19.656,0.93814,0.34326,0.045554
-4.8352,-1.2598,20.06,0.95026,0.30959,-0.034145
-4.6994,-1.5372,0.96485,0.97559,0.15324,0.15727
-4.8025,-1.6299,1.4722,0.95883,0.23437,-0.16037
-4.7035,-1.5126,1.7623,0.95238,0.30487,-0.0056706
-4.7515,-1.5823,2.1786,0.96,0.27481,0.053656
-4.7613,-1.5091,2.6396,0.96601,0.25818,-0.012787
-4.7795,-1.5645,2.8917,0.96513,0.23262,0.12004
-4.8409,-1.5436,3.3675,0.94179,0.32864,-0.070914
-4.6951,-1.5675,3.7552,0.96317,0.21641,-0.15958
-4.7619,-1.6046,4.1,0.99404,-0.0027197,0.10896
-4.7651,-1.5653,4.546,0.99074,0.1352,0.012583
-4.7685,-1.4307,4.7778,0.97325,0.2099,0.093407
-4.7716,-1.4444,5.2863,0.97779,0.16613,0.12775
-4.7715,-1.5215,5.7296,0.93051,0.36553,0.023185
-4.7766,-1.5955,6.0496,0.9662,0.21976,0.13477
-4.8278,-1.5392,6.4925,0.94339,0.32394,-0.071243
-4.7772,-1.4587,6.7901,0.94638,0.32008,-0.043735
-4.7918,-1.5607,7.245,0.95327,0.29759,0.052102
-4.7484,-1.6277,7.6392,0.95786,0.28655,-0.020024
-4.8274,-1.5103,7.9889,0.98522,0.17105,-0.0095902
-4.7791,-1.6139,8.3498,0.96084,0.27321,-0.046291
-4.796,-1.5554,8.6816,0.96004,0.26132,0.10021
-4.6915,-1.5427,9.1285,0.9572,0.28873,-0.019908
-4.7573,-1.5325,9.5884,0.93789,0.34638,-0.01951
-4.7385,-1.5693,10.015,0.93328,0.35753,0.034137
-4.7645,-1.5802,10.26,0.91618,0.40053,0.013661
-4.7526,-1.5681,10.743,0.88991,0.44799,-0.085772
-4.7166,-1.6229,11.044,0.91441,0.36482,0.1754
-4.7706,-1.422,11.524,0.96628,0.2319,-0.11196
-4.7063,-1.6486,11.766,0.98683,0.16043,-0.020724
-4.7345,-1.541,12.212,0.94164,0.31356,0.12242
-4.795,-1.5495,12.546,0.9075,0.41916,0.027379
-4.7544,-1.5794,12.998,0.94966,0.29933,-0.092458
-4.6838,-1.5874,13.359,0.92,0.38189,-0.088085
-4.7185,-1.5728,13.781,0.94805,0.26191,0.18055
-4.7831,-1.5285,14.165,0.97058,0.22933,-0.073375
-4.6838,-1.5544,14.485,0.94925,0.31441,0.0090928
-4.7928,-1.5044,14.881,0.92821,0.36723,-0.059738
-4.7092,-1.6437,15.331,0.89916,0.43651,-0.031243
-4.6922,-1.4496,15.783,0.91315,0.36701,0.17737
-4.7676,-1.4941,16.054,0.93658,0.34621,0.054393
-4.7558,-1.5789,16.51,0.93197,0.36171,-0.024596
-4.7403,-1.4947,16.929,0.86517,0.49687,-0.067877
-4.7035,-1.564,17.342,0.93775,0.33857,0.077482
-4.782,-1.5181,17.691,0.87607,0.45301,0.16518
-4.7597,-1.5864,18.024,0.98017,0.18586,0.068674
-4.7565,-1.5777,18.476,0.95253,0.2882,-0.098108
-4.734,-1.5796,18.799,0.97809,0.15983,-0.13342
-4.6789,-1.5536,19.106,0.97506,0.21449,-0.057046
-4.7804,-1.5093,19.658,0.9423,0.32359,0.085828
-4.8041,-1.506,19.986,0.95663,0.29106,0.012216
-4.6299,-1.8879,0.93962,0.94829,0.26138,0.18008
-4.7676,-1.837,1.3863,0.95583,0.28919,-0.052477
-4.6523,-1.7782,1.7705,0.97771,0.08821,-0.19051
-4.6439,-1.8209,2.1695,0.9272,0.37121,0.049953
-4.6745,-1.7828,2.6254,0.94936,0.31003,0.051064
-4.6816,-1.8148,3.0029,0.88935,0.44249,0.11514
-4.7174,-1.8445,3.3803,0.85936,0.50797,-0.058864
-4.6805,-1.8996,3.7521,0.94276,0.33253,0.025046
-4.7615,-1.7634,4.1837,0.87778,0.46701,-0.10679
-4.5951,-1.8742,4.4785,0.89922,0.43736,0.01105
-4.7286,-1.8177,4.8122,0.92,0.38566,0.069791
-4.6723,-1.8653,5.3066,0.91556,0.38128,-0.12795
-4.6168,-1.8133,5.6262,0.90698,0.41719,0.057722
-4.704,-1.9167,6.0134,0.87092,0.49105,0.019259
-4.6215,-1.8183,6.4869,0.88282,0.46206,-0.084429
-4.6045,-1.8628,6.8041,0.90058,0.42327,0.098973
-4.6391,-1.8926,7.213,0.89828,0.42526,0.11066
-4.6617,-1.8316,7.4867,0.92086,0.38945,-0.018492
-4.6776,-1.8673,8.0824,0.90926,0.41619,0.0062593
-4.6421,-1.8119,8.392,0.93852,0.34508,0.010279
-4.685,-1.86,8.7602,0.90327,0.42862,-0.019798
-4.5476,-1.8959,9.1111,0.95128,0.30765,-0.020338
-4.6582,-1.808,9.4768,0.93508,0.34495,0.081489
-4.6458,-1.8051,9.9421,0.91882,0.39303,0.036085
-4.6826,-1.7661,10.333,0.87583,0.45356,-0.16496
-4.4988,-1.7746,10.656,0.8673,0.49507,-0.051904
-4.6271,-1.8758,11.157,0.84794,0.48347,0.21738
-4.6731,-1.9346,11.483,0.93136,0.362,0.039034
-4.6604,-1.941,11.93,0.95715,0.286,-0.045476
-4.6495,-1.8579,12.214,0.95227,0.30491,0.014663
-4.6896,-1.7796,12.606,0.92241,0.38616,-0.005914
-4.7067,-1.7496,12.976,0.91804,0.38464,-0.096134
-4.5307,-1.7894,13.474,0.94221,0.28487,0.17633
-4.7383,-1.8334,13.803,0.89278,0.406,0.19521
-4.744,-1.9347,14.092,0.92441,0.37551,0.066726
-4.7374,-1.8415,14.56,0.91202,0.37667,-0.16231
-4.5806,-1.8587,14.945,0.87495,0.46202,-0.14488
-4.5914,-1.799,15.339,0.92894,0.36932,-0.025849
-4.6029,-1.7869,15.686,0.9528,0.28655,0.10035
-4.7414,-1.8124,16.094,0.9346,0.3314,0.12926
-4.6738,-1.88,16.489,0.89323,0.44934,0.015143
-4.6768,-1.9754,16.875,0.91896,0.38536,0.083756
-4.715,-1.8747,17.29,0.9577,0.26322,-0.11634
-4.5823,-1.901,17.696,0.91066,0.40984,0.052184
-4.7707,-1.7992,18.026,0.92174,0.38586,0.038742
-4.595,-1.9367,18.449,0.91895,0.39056,-0.054689
-4.6796,-1.9154,18.847,0.91065,0.41166,-0.035503
-4.6213,-1.8623,19.194,0.95692,0.29008,-0.012234
-4.6668,-1.8448,19.743,0.94223,0.33489,0.0073968
-4.6528,-1.866,19.891,0.94223,0.33489,0.0073968
-4.5724,-2.1618,0.97303,0.92762,0.35654,0.11132
-4.5969,-2.13,1.3953,0.91203,0.38366,0.14493
-4.6479,-2.2326,1.8006,0.92512,0.36325,-0.11044
-4.5115,-2.1105,2.095,0.90159,0.43066,-0.040925
-4.5612,-2.1441,2.5577,0.88894,0.45802,-0.00082957
-4.4921,-2.1302,2.9441,0.89583,0.42721,-0.1224
-4.4119,-2.1524,3.3917,0.79989,0.58307,0.14216
-4.4949,-2.2315,3.7165,0.84153,0.51152,0.17371
-4.5368,-2.066,4.1818,0.88321,0.46253,-0.077546
-4.5622,-2.1031,4.4318,0.9399,0.34134,-0.0083442
-4.5001,-2.1174,4.7947,0.84418,0.53589,0.013714
-4.4883,-2.151,5.194,0.80702,0.58777,-0.056947
-4.4912,-2.0529,5.6814,0.86405,0.50217,0.035299
-4.5179,-2.0676,6.0945,0.90793,0.41437,0.06299
-4.5914,-2.1455,6.4366,0.90575,0.41898,-0.063824
-4.4734,-2.0403,6.8625,0.91717,0.39699,-0.034554
-4.5624,-2.0977,7.1786,0.91289,0.39081,0.11789
-4.5521,-2.1079,7.5827,0.90183,0.43054,-0.036563
-4.4914,-2.1583,8.0663,0.85712,0.51009,0.071844
-4.5924,-2.1228,8.3428,0.92267,0.38326,-0.042228
-4.53,-2.0658,8.7377,0.85685,0.50089,-0.12214
-4.5461,-2.1204,9.1112,0.95279,0.30202,-0.031238
-4.5179,-2.171,9.5712,0.88609,0.46095,-0.048689
-4.4775,-2.2084,9.9635,0.908,0.41364,-0.066603
-4.4753,-2.0928,10.265,0.89739,0.44122,-0.003359
-4.4201,-2.1781,10.751,0.95156,0.29002,0.10207
-4.5071,-2.0995,11.08,0.8519,0.51799,0.077125
-4.5099,-2.1003,11.52,0.82861,0.55957,0.016996
-4.5482,-2.1501,11.847,0.7536,0.65547,0.049434
-4.5765,-2.093,12.194,0.93906,0.3419,-0.035704
-4.5395,-2.1373,12.61,0.92411,0.37676,-0.063765
-4.5009,-2.1176,13.113,0.9322,0.34829,-0.098463
-4.4577,-2.1782,13.44,0.97724,0.20476,-0.055426
-4.464,-2.2593,13.811,0.97981,0.19333,0.050959
-4.487,-2.1172,14.136,0.8519,0.52364,-0.0078197
-4.5118,-2.0953,14.578,0.83149,0.55342,-0.048346
-4.5363,-2.0618,14.96,0.95609,0.28999,0.042444
-4.4788,-2.1666,15.314,0.9411,0.33582,-0.039552
-4.5356,-2.0641,15.777,0.91715,0.37533,0.13401
-4.5425,-2.1575,16.027,0.87253,0.48618,-0.048122
-4.4711,-2.1115,16.503,0.86979,0.49339,-0.0046528
-4.4599,-2.1973,16.899,0.77908,0.62624,-0.029443
-4.5222,-2.0671,17.347,0.78937,0.61263,-0.039826
-4.5774,-2.0998,17.658,0.91212,0.40932,0.022129
-4.5539,-2.1929,18.145,0.86744,0.49283,-0.068295
-4.5577,-2.0907,18.411,0.83143,0.55004,-0.078572
-4.5471,-2.0829,18.908,0.88374,0.44983,-0.12903
-4.4565,-2.1433,19.121,0.88374,0.44983,-0.12903
-4.5569,-2.1811,19.564,0.82437,0.56463,0.039944
-4.5784,-2.0977,20.005,0.84971,0.51951,0.089962
-4.4732,-2.4315,0.92862,0.94882,0.30999,0.060468
-4.4843,-2.4085,1.2458,0.85323,0.4956,-0.16241
-4.3608,-2.3695,1.799,0.81913,0.5525,-0.15418
-4.3884,-2.4797,2.1224,0.87609,0.48187,-0.016576
-4.3395,-2.4276,2.458,0.79467,0.60301,-0.06994
-4.4115,-2.3309,2.9478,0.88305,0.4373,-0.17026
-4.304,-2.3168,3.3928,0.88571,0.45612,0.086439
-4.4268,-2.4315,3.6836,0.90097,0.40495,0.15575
-4.4057,-2.3883,4.1562,0.88431,0.45319,0.1123
-4.3807,-2.5146,4.5364,0.87683,0.46643,-0.11665
-4.3283,-2.3892,4.7607,0.86123,0.47983,-0.16746
-4.3111,-2.3591,5.1891,0.88162,0.47076,0.033785
-4.3439,-2.4306,5.6559,0.8976,0.43454,0.074048
-4.4008,-2.3787,6.056,0.83373,0.55147,-0.027866
-4.3088,-2.3482,6.5345,0.89845,0.40771,-0.16296
-4.381,-2.4352,6.7136,0.89845,0.40771,-0.16296
-4.4417,-2.3293,7.2975,0.88897,0.45784,-0.010762
-4.3741,-2.4076,7.5839,0.91605,0.38866,-0.098948
-4.3313,-2.3945,8.0336,0.84768,0.52546,0.073067
-4.3952,-2.4755,8.3506,0.8382,0.5219,0.15825
-4.3127,-2.4266,8.8219,0.91661,0.39962,0.011092
-4.4738,-2.325,9.212,0.86733,0.49773,0.0010954
-4.3039,-2.4289,9.5296,0.85206,0.51335,-0.10227
-4.3471,-2.4026,9.998,0.91669,0.3973,-0.042841
-4.4351,-2.286,10.292,0.90616,0.41866,0.060029
-4.4124,-2.4229,10.666,0.89628,0.43902,-0.062796
-4.3486,-2.366,11.042,0.89575,0.44379,-0.026226
-4.412,-2.3978,11.507,0.88671,0.46201,0.017094
-4.3393,-2.3171,11.851,0.78627,0.61743,-0.023469
-4.4326,-2.489,12.283,0.86664,0.47391,0.15602
-4.3914,-2.4011,12.589,0.89268,0.44495,-0.071709
-4.3545,-2.417,12.984,0.91626,0.40059,0.0014803
-4.4092,-2.4314,13.451,0.84262,0.5261,-0.11491
-4.3687,-2.3587,13.768,0.81725,0.56998,-0.085051
-4.452,-2.4592,14.218,0.96021,0.27912,-0.0093068
-4.3878,-2.3099,14.613,0.92018,0.38709,-0.058571
-4.4305,-2.4718,15.004,0.90163,0.43224,0.015364
-4.3189,-2.4852,15.354,0.88156,0.47128,-0.027237
-4.3674,-2.4544,15.689,0.88536,0.46167,0.054774
-4.4113,-2.4043,16.194,0.91435,0.36799,-0.16898
-4.4367,-2.3469,16.59,0.84494,0.52662,-0.093572
-4.286,-2.4154,16.783,0.89169,0.44759,0.067534
-4.298,-2.3666,17.294,0.86373,0.48559,0.13482
-4.4257,-2.409,17.666,0.8738,0.468,0.1321
-4.3828,-2.4237,18.1,0.84103,0.53848,-0.051977
-4.3194,-2.4062,18.554,0.903,0.42882,-0.026441
-4.3616,-2.4357,18.847,0.91245,0.39842,0.093226
-4.4254,-2.3915,19.114,0.8774,0.45244,-0.15957
-4.2531,-2.4058,19.619,0.86157,0.49913,0.092601
-4.3713,-2.4505,19.973,0.87402,0.48323,0.050775
-4.3633,-2.7118,0.86848,0.78748,0.59763,-0.15071
-4.2061,-2.6602,1.4336,0.75788,0.64939,-0.062529
-4.2638,-2.6702,1.753,0.80401,0.59377,0.031592
-4.2376,-2.6149,2.1378,0.77186,0.62601,-0.11107
-4.1971,-2.6511,2.4714,0.83802,0.54553,-0.010984
