-2.1344,0.90434,4.2809,0.92277,-0.37543,-0.086881
-2.0011,0.93015,4.5103,0.19757,-0.83851,-0.5078
-2.0126,0.82246,4.6044,0.29689,-0.48016,-0.82541
-1.8547,0.69435,4.781,0.86137,-0.5069,-0.033081
-1.8089,0.66816,5.0672,0.86762,-0.49033,-0.08254
-1.7432,0.76537,5.207,0.92765,-0.36522,-0.077952
-1.7213,0.70917,5.4629,0.75282,-0.58507,-0.30159
-1.6448,0.66837,5.6307,0.87773,-0.27691,-0.39104
-1.6099,0.61013,5.9045,0.83715,-0.54642,-0.024617
-1.5738,0.61515,5.9751,0.78398,-0.61315,-0.09704
-1.426,0.6453,6.2478,0.62663,-0.6173,-0.47568
-1.4241,0.47112,6.4909,0.70908,-0.64511,-0.28466
-1.32,0.40675,6.6706,0.94829,-0.19815,-0.24795
-1.3128,0.53381,6.9212,0.96203,-0.26048,-0.081588
-1.3346,0.61664,7.0169,0.91976,-0.29417,-0.25981
-1.2321,0.40729,7.2552,0.97946,-0.10266,-0.17354
-1.2229,0.46546,7.4963,0.65456,-0.36725,-0.66082
-1.1083,0.45106,7.6658,0.87318,-0.36703,-0.3207
-1.0992,0.49255,7.8304,0.83421,-0.53483,0.13432
-1.1364,0.45332,8.1515,0.97411,0.19646,0.11189
-1.0373,0.35953,8.2243,0.73463,0.67639,-0.053148
-1.1639,0.48754,8.5323,0.93727,0.061261,-0.34317
-1.018,0.37984,8.7106,0.82158,-0.56797,0.049184
-0.95171,0.35443,8.8565,0.81844,-0.56001,0.12861
-1.0448,0.3112,9.1159,0.95867,-0.20269,0.19966
-0.93665,0.33618,9.2852,0.90803,-0.41749,-0.034317
-0.96714,0.41447,9.4689,0.12108,-0.06593,-0.99045
-0.88493,0.48793,9.7291,0.60511,-0.75112,-0.26393
-0.97592,0.44806,9.9155,0.39359,-0.62674,0.67252
-0.89982,0.35067,10.151,0.88631,-0.46306,-0.0060845
-0.99874,0.40119,10.37,0.88057,-0.367,-0.29984
-0.96406,0.36813,10.558,0.85195,-0.51964,0.064487
-0.95844,0.40255,10.698,0.41889,-0.8689,0.26371
-0.97661,0.38377,10.891,0.87553,-0.48287,-0.016803
-0.9678,0.40392,11.098,0.87254,-0.37991,0.30715
-0.98066,0.37722,11.298,0.91385,-0.26024,0.3117
-1.0311,0.39661,11.513,0.96559,-0.25729,0.037899
-1.0986,0.38297,11.784,0.93413,-0.35432,-0.043174
-1.1076,0.40338,11.878,0.89123,-0.44286,0.097903
-1.1094,0.50549,12.099,0.95165,-0.1881,0.24285
-1.2117,0.43782,12.396,0.75646,0.27601,0.59294
-1.1767,0.52506,12.581,0.97635,-0.1879,0.10692
-1.2382,0.50848,12.714,0.86762,-0.48993,0.08492
-1.3408,0.52439,12.903,0.8633,-0.30357,0.40318
-1.3729,0.41039,13.124,0.97488,0.042022,0.21872
-1.3736,0.57877,13.291,0.81809,-0.50747,0.27054
-1.4828,0.54308,13.561,0.72859,-0.67083,0.13837
-1.4683,0.56995,13.706,0.97198,-0.23244,-0.034993
-1.6013,0.59643,13.963,0.65783,-0.17019,0.73368
-1.5402,0.67179,14.198,0.90876,-0.35858,0.2135
-1.6261,0.66628,14.343,0.79202,-0.39649,0.46422
-1.7588,0.64715,14.573,0.86062,-0.30786,0.40566
-1.8117,0.71434,14.72,0.87684,-0.3745,0.3015
-1.8408,0.7896,14.909,0.80654,-0.47522,0.35166
-1.903,0.7597,15.174,0.88558,-0.43884,-0.15218
-1.9048,0.71829,15.394,0.81884,-0.52949,0.22168
-2.0175,0.77053,15.569,0.60996,-0.66408,0.43237
-2.0053,0.82158,15.735,0.87088,-0.3001,0.38925
-2.1464,0.76352,15.947,0.80561,-0.47709,0.35124
-2.1854,0.8695,16.104,0.78999,-0.52705,0.31325
-2.2137,0.92923,16.37,0.78714,-0.35078,0.50731
-2.3363,0.8691,16.69,0.98807,-0.14571,-0.049789
-2.2302,0.89362,16.774,0.97378,-0.11816,0.19441
-2.3873,0.93827,17.009,0.79955,-0.5271,0.28791
-2.441,0.98745,17.239,0.88972,-0.42546,0.16549
-2.4893,0.95225,17.408,0.94861,-0.27492,0.15672
-2.464,1.0081,17.506,0.93352,-0.35519,0.04878
-2.5142,1.0461,17.806,0.99812,-0.05662,-0.02348
-2.6954,1.0074,18.048,0.91473,-0.36179,0.17991
-2.59,1.0338,18.096,0.87546,-0.48326,0.0061911
-2.6206,1.1432,18.39,0.85233,-0.33507,0.40158
-2.7029,1.2066,18.664,0.96903,-0.092184,0.22909
-2.7378,1.0786,18.927,0.66861,-0.65703,-0.34824
-2.7468,1.0707,18.91,0.66861,-0.65703,-0.34824
-2.7887,1.1028,19.298,0.90186,-0.38948,-0.18694
-2.738,1.1217,19.386,0.90186,-0.38948,-0.18694
-2.8107,0.95791,19.685,0.99944,0.028875,-0.017148
-2.8832,1.0121,19.836,0.89665,-0.41445,-0.15571
-2.7659,1.1168,20.023,0.92371,-0.35706,-0.13878
-2.809,0.87744,0.0085875,0.88348,-0.19954,0.42385
-2.7819,0.95164,0.2023,0.98871,0.051278,0.1408
-2.8726,0.875,0.45521,0.71719,-0.26371,-0.64505
-2.868,0.95654,0.55679,0.89048,-0.45268,0.046225
-2.8736,0.94441,0.80439,0.83508,-0.54972,-0.021255
-2.769,0.9038,0.91552,0.7959,-0.58017,-0.17304
-2.7909,0.92146,1.1654,0.82583,-0.53619,0.17468
-2.7596,1.013,1.363,0.94065,-0.31085,-0.13618
-2.7108,0.9152,1.6331,0.74973,-0.64279,-0.15728
-2.7436,0.84039,1.8888,0.8944,-0.41856,-0.15767
-2.6719,0.81731,2.0136,0.60912,-0.65427,-0.44822
-2.6065,0.92874,2.2951,0.58912,-0.58033,-0.56227
-2.5728,0.85404,2.4484,0.79778,-0.55464,-0.23648
-2.5307,0.86819,2.5008,0.8325,-0.38631,-0.39712
-2.4521,0.71773,2.7098,0.63306,-0.16553,-0.7562
-2.3997,0.86821,2.9347,0.73654,-0.53475,-0.41419
-2.3477,0.83264,3.1844,0.95017,-0.25863,-0.17403
-2.3334,0.79965,3.3636,0.98865,-0.14817,0.024803
-2.3665,0.73016,3.604,0.89395,-0.21116,-0.3953
-2.2137,0.72497,3.8348,0.99137,-0.083996,0.10063
-2.2565,0.64818,4.0291,0.82946,-0.53273,-0.16789
-2.1411,0.7114,4.2268,0.93605,-0.18667,-0.29829
-1.9909,0.54139,4.4429,0.98067,-0.11898,-0.15532
-2.0167,0.67265,4.5842,0.89553,0.1749,-0.40919
-1.987,0.67078,4.9283,0.94568,-0.30875,-0.10175
-1.9423,0.58784,5.0571,0.82234,-0.28015,-0.49526
-1.7954,0.66374,5.2749,0.86297,-0.41248,-0.29179
-1.7847,0.54707,5.4087,0.87834,-0.33144,-0.34448
-1.6286,0.63592,5.6597,0.78821,-0.48069,-0.38427
-1.611,0.59268,5.9226,0.83715,-0.54642,-0.024617
-1.6779,0.48939,6.0089,0.84174,-0.40732,-0.35435
-1.5151,0.53202,6.2253,0.74688,-0.36017,-0.55896
-1.4691,0.54219,6.3942,0.65836,-0.50863,-0.55484
-1.4173,0.47309,6.6635,0.94332,-0.19408,-0.26923
-1.3516,0.44619,6.8224,0.94586,0.21974,-0.23888
-1.2876,0.47062,7.1074,0.94483,0.024038,-0.32669
-1.268,0.37993,7.2167,0.99248,-0.032984,-0.11784
-1.239,0.40564,7.562,0.71121,-0.34578,-0.61206
-1.1615,0.34136,7.6679,0.84302,-0.23638,-0.48315
-1.1764,0.41235,7.9644,0.96973,-0.23376,0.070505
-1.0139,0.42753,8.0545,0.083092,-0.62832,-0.7735
-1.1354,0.38394,8.2408,0.96244,0.24366,0.11974
-1.0277,0.24975,8.5048,0.94793,-0.25001,0.19727
-0.92563,0.39131,8.7275,0.86835,-0.48268,0.11398
-1.0538,0.27883,8.8501,0.82482,-0.5299,-0.19719
-0.94554,0.34197,9.0283,0.90708,-0.38789,0.16356
-0.95733,0.34676,9.4103,0.9696,0.20509,0.13344
-1.0136,0.38762,9.5069,0.12108,-0.06593,-0.99045
-0.95418,0.28565,9.7788,0.69612,-0.71789,0.0078911
-0.89619,0.3528,9.8981,0.88808,-0.40065,0.22538
-0.99682,0.19973,10.064,0.91402,-0.16499,-0.37061
-0.98944,0.33942,10.339,0.67736,0.053134,0.73373
-0.93843,0.27021,10.416,0.99949,-0.031532,0.0054594
-0.93129,0.38229,10.714,0.41889,-0.8689,0.26371
-1.0236,0.29976,10.97,0.97213,-0.22565,-0.063533
-1.1013,0.3573,11.151,0.8962,-0.44364,-0.0030654
-1.0937,0.41055,11.342,0.84262,-0.17221,0.51023
-1.0875,0.28137,11.507,0.91982,-0.28305,-0.27169
-1.0828,0.37968,11.676,0.93764,0.0066585,0.34755
-1.0513,0.42239,11.958,0.79819,-0.48011,0.36384
-1.115,0.38405,12.187,0.89592,-0.33022,0.29712
-1.2774,0.30988,12.271,0.91655,-0.34108,0.20883
-1.2962,0.38154,12.536,0.75156,0.49687,0.43391
-1.3243,0.44446,12.653,0.81805,-0.56524,0.10626
-1.3246,0.33254,12.905,0.99349,0.10966,-0.030746
-1.3601,0.38803,13.112,0.97488,0.042022,0.21872
-1.4908,0.52546,13.366,0.83166,-0.39742,0.38782
-1.5559,0.45468,13.516,0.93904,0.07593,0.33532
-1.5833,0.53195,13.715,0.97624,-0.15787,0.1484
-1.519,0.50058,14.049,0.77659,-0.11879,0.61871
-1.6565,0.52082,14.154,0.81699,-0.55205,0.16662
-1.7222,0.57187,14.355,0.83243,-0.47602,0.28366
-1.7367,0.56622,14.542,0.85251,-0.33067,0.40483
-1.8165,0.61078,14.638,0.9843,-0.084163,0.15515
-1.953,0.61281,14.967,0.95133,-0.24414,0.18806
-1.9295,0.70018,15.189,0.95823,-0.28322,-0.03963
-1.9214,0.66807,15.375,0.84734,-0.48426,0.21795
-2.0344,0.69884,15.596,0.68735,-0.57868,0.43895
-2.1733,0.68915,15.73,0.7962,-0.39927,0.45459
-2.2227,0.62033,15.882,0.86597,-0.49824,0.043052
-2.2812,0.77442,16.124,0.90464,-0.25467,0.34172
-2.354,0.67887,16.333,0.96548,-0.14677,0.21518
-2.3593,0.69891,16.558,0.96012,-0.27321,0.059373
-2.374,0.70601,16.713,0.91101,-0.40942,-0.049373
-2.4714,0.80851,16.937,0.66857,-0.64928,0.36255
-2.5267,0.82138,17.191,0.87968,-0.42846,0.20637
-2.5454,0.81723,17.367,0.85659,-0.50161,0.12099
-2.5806,0.86044,17.629,0.85583,-0.50222,0.12385
-2.5164,0.91691,17.719,0.90926,-0.39135,0.14172
-2.5948,0.87223,17.948,0.7814,-0.50125,0.3717
-2.6382,0.93097,18.259,0.94578,-0.32326,-0.031551
-2.723,0.74693,18.383,0.91648,-0.39839,0.036681
-2.7224,0.90907,18.637,0.83752,-0.17526,0.51754
-2.8913,1.0108,18.778,0.94675,-0.29972,0.11759
-2.8267,0.90686,19.044,0.84202,-0.52261,-0.13368
-2.8702,0.92125,19.202,0.945,-0.32649,0.019591
-2.8353,0.92157,19.443,0.8982,-0.09127,0.43
-2.9632,0.9146,19.58,0.99144,0.063996,-0.1138
-2.8474,1.0385,19.794,0.94117,-0.33458,-0.0475
-2.8363,0.9217,19.992,0.91729,-0.20494,-0.34144
-2.9222,0.65917,0.077246,0.92036,-0.36634,-0.13686
-2.9772,0.70705,0.2224,0.98739,-0.13863,-0.076504
-2.9259,0.72837,0.48117,0.92243,-0.096971,-0.3738
-2.7998,0.71308,0.60089,0.87615,-0.40245,-0.26532
-2.9886,0.75015,0.80745,0.96934,-0.13476,-0.20545
-2.9225,0.75254,1.0354,0.85765,-0.42996,-0.2821
-2.8214,0.67261,1.2717,0.95331,-0.18776,-0.23652
-2.8647,0.73775,1.4231,0.97238,-0.21307,0.09523
-2.8342,0.79281,1.6259,0.95144,-0.22215,-0.21309
-2.7823,0.65903,1.8019,0.95713,0.013705,-0.28932
-2.7276,0.74757,2.0129,0.9324,-0.22122,-0.28582
-2.6556,0.69323,2.2243,0.95464,-0.29366,-0.049271
-2.6917,0.79441,2.4502,0.6045,-0.5901,-0.53513
-2.5877,0.71603,2.5964,0.49588,-0.57776,-0.6483
-2.5006,0.6202,2.7138,0.97536,-0.21783,0.035011
-2.5673,0.69708,2.9736,0.85709,-0.50816,-0.084635
-2.3884,0.68804,3.2471,0.94581,-0.30043,-0.12321
-2.3419,0.54794,3.3989,0.80525,-0.43634,-0.40147
-2.2607,0.61187,3.62,0.91855,0.16112,-0.36099
-2.2405,0.69735,3.8263,0.98794,-0.15316,0.022854
-2.2703,0.60671,3.9719,0.9283,-0.15748,0.33683
-2.0916,0.6608,4.2206,0.94395,-0.19371,-0.26727
-2.1292,0.52528,4.4019,0.9354,-0.13074,-0.32853
-2.052,0.62694,4.6568,0.89553,0.1749,-0.40919
-1.914,0.57874,4.7885,0.93686,-0.078044,-0.34089
-1.8485,0.50976,5.0489,0.82234,-0.28015,-0.49526
-1.8844,0.50672,5.2406,0.93358,-0.34773,-0.086659
-1.822,0.41799,5.468,0.91002,-0.26544,-0.31845
-1.7592,0.45038,5.6683,0.85284,-0.3989,-0.33696
-1.6939,0.44514,5.8923,0.96871,-0.23803,0.070346
-1.6172,0.43346,5.992,0.70629,-0.26241,-0.65749
-1.5972,0.35084,6.2765,0.94495,-0.32698,-0.012146
-1.5353,0.40243,6.4429,0.83627,-0.37736,-0.39782
-1.3979,0.45667,6.6302,0.94332,-0.19408,-0.26923
-1.3494,0.39036,6.8672,0.95253,-0.3038,0.019743
-1.2444,0.44915,7.1091,0.94483,0.024038,-0.32669
-1.2492,0.19504,7.2273,0.98124,-0.16259,-0.1036
-1.3037,0.37466,7.4801,0.55633,-0.18466,-0.81019
-1.1835,0.27012,7.7461,0.80155,-0.59707,0.032001
-1.1206,0.31464,7.8809,0.97078,-0.22921,0.071058
-1.1218,0.29902,8.1329,0.89005,0.016504,-0.45556
-1.1569,0.35904,8.3002,0.6698,0.66198,0.33638
-1.006,0.28201,8.357,0.9468,-0.31772,-0.051336
-1.0512,0.28103,8.7036,0.91793,-0.3718,-0.13843
-1.0232,0.26227,8.772,0.91793,-0.3718,-0.13843
-1.0346,0.24463,9.0323,0.95345,-0.30046,-0.025608
-1.0084,0.26047,9.2356,0.92531,-0.10707,-0.36378
-0.92211,0.26719,9.5089,0.56632,0.073118,0.82093
-1.0228,0.22933,9.6604,0.93704,0.19204,-0.29167
-0.99366,0.23663,9.9488,0.75166,-0.60359,-0.26585
-0.94486,0.27289,10.072,0.92549,-0.1172,-0.36019
-1.0222,0.26116,10.351,0.99079,-0.07564,-0.11232
-1.0053,0.19727,10.473,0.99148,0.12569,-0.03412
-1.0145,0.21924,10.695,0.97837,0.15717,0.13448
-1.0632,0.2788,10.903,0.98649,-0.13392,-0.094317
-1.0214,0.29165,11.157,0.19649,0.012984,0.98042
-1.1049,0.25889,11.433,0.69213,-0.69741,0.18593
-1.1129,0.23862,11.506,0.99638,0.058176,-0.062014
-1.1215,0.36032,11.7,0.98905,0.013273,0.14695
-1.1862,0.26081,11.951,0.97446,-0.22428,-0.010797
-1.1249,0.30871,12.106,0.95862,-0.27897,0.056707
-1.1707,0.31748,12.376,0.81418,-0.14794,-0.56145
-1.1322,0.31075,12.48,0.73702,0.13291,0.66267
-1.3125,0.37031,12.71,0.91337,-0.40706,0.0073894
-1.3836,0.43544,12.961,0.97963,0.14003,0.14393
-1.4325,0.34128,13.124,0.97488,0.042022,0.21872
-1.4361,0.39985,13.333,0.97676,-0.20241,-0.070478
-1.4302,0.34976,13.499,0.92355,-0.042983,0.38107
-1.5797,0.33551,13.787,0.85593,-0.43995,0.27171
-1.5551,0.43519,13.943,0.65809,-0.43262,0.61624
-1.6544,0.47591,14.063,0.82212,0.10549,0.55946
-1.7238,0.45112,14.402,0.89117,-0.33395,0.30708
-1.833,0.48355,14.52,0.8337,-0.25095,0.4919
-1.7913,0.45994,14.714,0.92463,-0.23704,0.29811
-1.9015,0.53517,14.996,0.96768,-0.25003,0.032726
-2.0301,0.41681,15.13,0.94419,-0.077687,0.32011
-2.0599,0.50594,15.288,0.83659,-0.30229,0.45688
-2.1758,0.52428,15.585,0.85485,-0.34172,0.39047
-2.201,0.58332,15.774,0.89332,-0.17323,0.41469
-2.3267,0.59672,15.859,0.85329,0.11173,0.50932
-2.3112,0.48848,16.175,0.98619,-0.018104,0.1646
-2.4003,0.56656,16.398,0.8938,-0.18563,0.40825
-2.4042,0.59682,16.548,0.88565,-0.45675,0.083667
-2.415,0.58148,16.723,0.92639,-0.36293,-0.1004
-2.5853,0.71118,16.857,0.89368,0.049307,0.44598
-2.589,0.61064,17.181,0.95172,-0.11877,0.28307
-2.6194,0.71017,17.311,0.93909,-0.33587,0.072822
-2.619,0.69513,17.62,0.86548,-0.36713,0.34082
-2.7142,0.69577,17.782,0.78,-0.38227,0.49545
-2.847,0.69106,17.926,0.99396,-0.10964,0.0037569
-2.7434,0.78413,18.179,0.93169,-0.29941,-0.20569
-2.683,0.7342,18.416,0.91648,-0.39839,0.036681
-2.7852,0.73814,18.574,0.88748,-0.31014,0.34087
-2.8718,0.71684,18.803,0.94583,-0.018988,0.32411
-2.9212,0.75398,18.969,0.92669,-0.35925,0.11035
-2.9182,0.72811,19.258,0.90311,-0.42502,-0.061292
-2.8823,0.81235,19.37,0.91404,-0.33101,-0.23446
-2.8477,0.71547,19.552,0.95581,-0.28328,0.078633
-2.9357,0.66257,19.806,0.88958,-0.45617,0.023543
-2.9292,0.71601,19.998,0.91338,-0.34749,-0.21211
-3.0257,0.55932,0.0076595,0.99549,-0.024315,-0.091655
-2.8992,0.58145,0.19317,0.98459,-0.14221,-0.10177
-2.9601,0.51306,0.43061,0.96886,-0.18586,0.16362
-3.0036,0.54183,0.67558,0.99969,-0.0013252,-0.024945
-2.9103,0.59138,0.80296,0.8653,-0.49575,0.074105
-2.879,0.6406,1.0054,0.99179,0.083448,-0.096915
-2.896,0.52201,1.2487,0.95364,-0.2278,-0.19667
-2.7967,0.57395,1.3378,0.98574,-0.1378,-0.096587
-2.828,0.50152,1.6632,0.60646,0.017158,-0.79493
-2.7643,0.49975,1.7904,0.81609,-0.24572,-0.52308
-2.7588,0.5253,2.0453,0.97979,-0.16958,-0.10607
-2.7526,0.44511,2.2376,0.84622,-0.36573,-0.38751
-2.7156,0.52573,2.4991,0.90778,0.07939,-0.41187
-2.5833,0.5086,2.6563,0.74495,-0.16941,-0.64525
-2.5541,0.49253,2.71,0.92891,-0.33302,-0.16195
-2.6076,0.46646,2.9815,0.99931,-0.021434,-0.030444
-2.5357,0.51245,3.2747,0.81145,-0.2069,-0.54657
-2.324,0.43039,3.4126,0.79144,-0.39524,-0.46626
-2.3806,0.48745,3.6114,0.92254,0.23889,-0.30306
-2.203,0.46545,3.7738,0.92397,-0.3811,-0.032381
-2.339,0.48438,3.9674,0.99303,0.049869,0.10676
-2.2363,0.38588,4.1545,0.86122,-0.254,-0.44021
-2.0794,0.35339,4.4916,0.9379,-0.34178,-0.059441
-2.0932,0.38048,4.6965,0.73343,-0.6478,-0.20599
-1.9491,0.32152,4.8435,0.87898,0.09588,-0.46712
-1.9394,0.37995,5.0659,0.99899,-0.043798,-0.0097221
-1.8621,0.3116,5.2264,0.96139,-0.050079,-0.2706
-1.8354,0.24798,5.4349,0.93229,0.005571,-0.36167
-1.8023,0.36413,5.6418,0.89012,-0.047287,-0.45327
-1.6586,0.34115,5.7628,0.90891,0.034627,-0.41554
-1.5698,0.31961,6.0838,0.87941,-0.30332,-0.36694
-1.5944,0.28785,6.2528,0.97106,-0.23848,-0.013217
-1.5483,0.30069,6.5177,0.90099,-0.062761,-0.42927
-1.4422,0.25544,6.642,0.6948,-0.63455,-0.33852
-1.429,0.26931,6.8859,0.85107,-0.35893,-0.38321
-1.3421,0.29016,6.9724,0.86641,-0.27169,-0.41894
-1.3147,0.18091,7.2843,0.62876,-0.28947,-0.72171
-1.2606,0.16611,7.5423,0.69549,-0.48152,-0.53332
-1.1678,0.29307,7.6627,0.84302,-0.23638,-0.48315
-1.1185,0.12283,7.9008,0.53344,-0.18188,0.82605
-1.1798,0.26733,8.0409,0.88349,-0.16528,-0.43832
-1.0645,0.20005,8.3336,0.7525,-0.65273,0.087747
-1.0979,0.211,8.4767,0.93602,-0.34983,0.038515
-1.0865,0.25122,8.6711,0.93032,-0.36049,0.067445
-1.0712,0.18976,8.8419,0.92246,-0.37523,-0.090935
-0.9828,0.15229,9.0461,0.97177,0.071719,-0.22475
-0.93217,0.21566,9.3138,0.95663,-0.11065,-0.26948
-1.0134,0.18518,9.4959,0.88646,-0.45911,0.058359
-1.0053,0.19639,9.7598,0.99109,0.12186,0.053803
-1.0548,0.24295,9.8218,0.98906,0.1421,-0.039677
-0.97024,0.23682,10.132,0.67443,0.015022,-0.73819
-0.97827,0.17438,10.348,0.99054,-0.11777,-0.070437
-0.99499,0.28182,10.543,0.94704,-0.26215,0.18548
-0.99654,0.30204,10.641,0.95704,-0.20854,0.20147
-1.0303,0.23783,10.891,0.78809,-0.26797,0.55418
-1.0593,0.16865,11.153,0.28393,0.18854,-0.94012
-1.0435,0.26084,11.351,0.8091,0.10936,0.5774
-1.0826,0.15056,11.599,0.96798,-0.21221,0.13409
-1.137,0.25385,11.731,0.79696,-0.15909,0.5827
-1.0883,0.20671,11.907,0.9766,0.21323,-0.028031
-1.1301,0.22343,12.058,0.98776,0.1021,0.11788
-1.2637,0.17568,12.315,0.99619,0.086374,-0.011978
-1.2447,0.18136,12.511,0.81342,-0.57926,-0.052863
-1.3522,0.31144,12.748,0.96521,-0.2449,-0.091661
-1.341,0.29003,13.041,0.93662,-0.10275,0.33495
-1.4058,0.23747,13.159,0.71648,-0.15728,0.67965
-1.5041,0.20334,13.326,0.9387,-0.25976,0.22663
-1.5765,0.19547,13.528,0.95861,0.2303,0.1674
-1.5668,0.21785,13.796,0.99366,-0.033699,0.10726
-1.667,0.30716,13.925,0.83929,-0.3671,0.40105
-1.7154,0.40485,14.198,0.87236,-0.46706,0.14435
-1.7778,0.35634,14.376,0.89637,-0.31955,0.30726
-1.8399,0.30914,14.568,0.90086,0.14908,0.40771
-1.9116,0.4485,14.802,0.86346,-0.2598,0.43237
-2.0581,0.37975,15.007,0.9841,-0.13686,0.11322
-1.8928,0.34558,15.161,0.94419,-0.077687,0.32011
-2.1069,0.38661,15.394,0.89637,-0.1226,0.42601
-2.2051,0.38729,15.614,0.95147,-0.20131,0.23278
-2.1913,0.47527,15.758,0.86876,-0.26103,0.42086
-2.2784,0.47049,15.974,0.98793,-0.14874,0.043314
-2.3912,0.39696,16.19,0.91091,-0.36392,0.19445
-2.3058,0.3993,16.302,0.91695,-0.15846,0.36619
-2.496,0.44599,16.558,0.99589,-0.077311,0.047192
-2.423,0.45659,16.741,0.97591,-0.21741,-0.018326
-2.4593,0.51865,16.942,0.94129,-0.20808,0.26586
-2.5374,0.38474,17.113,0.92706,-0.13349,0.35035
-2.6403,0.53537,17.444,0.96812,-0.1066,0.22668
-2.7036,0.59937,17.58,0.81715,-0.43217,0.38143
-2.8103,0.51588,17.754,0.97672,0.055848,0.20713
-2.7563,0.4648,18.001,0.91786,0.13971,0.37151
-2.8015,0.55271,18.132,0.98475,-0.069626,0.15946
-2.8169,0.52763,18.386,0.86895,-0.49177,-0.055625
-2.8242,0.55539,18.584,0.98035,-0.15756,0.11868
-2.8557,0.48555,18.843,0.93194,0.067439,0.35628
-2.9748,0.56708,19.026,0.98235,0.076838,0.17053
-2.9855,0.61588,19.29,0.92213,-0.38305,0.054368
-3.0388,0.52331,19.412,0.97374,0.22283,-0.046636
-3.0334,0.54584,19.562,0.93546,-0.34967,-0.051424
-3.0132,0.53455,19.808,0.95868,-0.26419,-0.10555
-2.83,0.64812,19.988,0.91338,-0.34749,-0.21211
-2.9545,0.34403,-0.039882,0.98317,-0.09178,-0.15796
-2.9801,0.3762,0.21235,0.95478,-0.28685,0.078192
-2.9547,0.31607,0.32871,0.97825,-0.20745,-0.00075446
-2.9912,0.46104,0.70267,0.91472,0.22868,-0.33315
-2.7822,0.32451,0.82916,0.95654,0.14358,-0.25381
-2.9104,0.3908,1.0636,0.96704,-0.19418,-0.16471
-2.9062,0.35193,1.2291,0.97336,-0.036784,0.22631
-3.0004,0.29441,1.4457,0.98271,-0.13315,0.12865
-2.9404,0.40757,1.6996,0.56851,-0.075924,-0.81917
-2.768,0.41482,1.7822,0.83351,-0.16108,-0.52851
-2.7618,0.36104,1.9453,0.99416,-0.10471,-0.026227
-2.7056,0.29493,2.1991,0.94725,-0.26687,-0.17749
-2.6442,0.33616,2.3908,0.98404,0.13935,-0.1107
-2.5959,0.29008,2.6929,0.90325,-0.12244,0.41128
-2.5955,0.31785,2.8593,0.93324,-0.30504,-0.18978
-2.496,0.36349,3.0084,0.97631,0.076163,-0.20252
-2.507,0.26783,3.2546,0.97667,0.13818,-0.16438
-2.4679,0.27065,3.502,0.70724,-0.63874,-0.30302
-2.4052,0.20336,3.6326,0.80298,-0.46193,-0.37661
-2.3012,0.20609,3.8899,0.95369,-0.093926,-0.28575
-2.2664,0.27274,4.0195,0.95981,0.067029,-0.27253
-2.233,0.17612,4.2352,0.87433,-0.26041,-0.40954
-2.1311,0.27372,4.4867,0.95002,-0.31183,0.014703
-2.1195,0.32123,4.751,0.70184,-0.58143,-0.41153
-2.0172,0.19185,4.8572,0.63598,-0.26813,-0.72363
-1.9033,0.1583,5.0298,0.95098,0.04663,-0.30571
-1.9581,0.33496,5.278,0.96139,-0.050079,-0.2706
-1.8041,0.1609,5.5282,0.99917,0.037669,0.015191
-1.8004,0.15855,5.6398,0.9493,-0.075703,0.30512
-1.7029,0.19337,5.8279,0.96292,-0.25013,-0.10107
-1.7517,0.21297,5.9959,0.88151,-0.36465,-0.29996
-1.6195,0.21476,6.3368,0.95393,-0.070507,-0.29163
-1.535,0.21849,6.4942,0.86849,0.12078,-0.48076
-1.5001,0.24992,6.6142,0.95354,-0.099164,-0.28449
-1.4879,0.1219,6.8006,0.95636,-0.10986,-0.27074
-1.3145,0.1839,7.0526,0.61168,-0.60742,-0.50684
-1.2654,0.24199,7.2947,0.92392,-0.093164,0.37108
-1.3715,0.03503,7.6051,0.936,-0.057949,-0.3472
-1.2177,0.1808,7.6086,0.80456,-0.12536,-0.58048
-1.2662,0.19923,7.9217,0.95713,-0.28673,0.041069
-1.1491,0.1096,8.1396,0.95362,-0.29763,-0.045023
-1.1044,0.15328,8.2219,0.97872,-0.17924,-0.099848
-1.0469,0.17646,8.3931,0.74494,-0.65911,0.10318
-1.1213,0.098214,8.7488,0.99712,-0.075708,-0.0050881
-1.062,0.17078,8.8799,0.96289,-0.24483,-0.11363
-1.0102,0.063596,9.0936,0.95768,-0.077666,-0.27716
-0.99869,0.052474,9.2431,0.93484,0.034714,0.35338
-1.0788,0.16881,9.5152,0.89087,-0.45176,0.047664
-0.97137,0.094038,9.7404,0.9338,-0.086157,-0.34726
-1.0273,0.1232,10.03,0.88121,-0.092714,-0.46355
-0.92728,0.12179,10.115,0.66175,0.29326,-0.68999
-0.87797,0.07469,10.231,0.92486,-0.11355,0.36297
-0.95466,0.042001,10.495,0.91896,-0.30321,-0.25213
-0.99268,0.15775,10.713,0.97771,0.14883,0.14811
-1.0168,0.16127,10.875,0.86919,-0.13993,0.47427
-1.0966,0.20454,11.107,0.97195,-0.11743,0.20377
-1.1027,0.21197,11.35,0.69213,-0.69741,0.18593
-1.0703,0.22675,11.472,0.69213,-0.69741,0.18593
-1.0548,0.19844,11.652,0.96863,-0.043708,0.24463
-1.1887,0.13111,11.903,0.47027,-0.4768,-0.74264
-1.0932,0.11571,12.032,0.99632,-0.024201,-0.082244
-1.266,0.1702,12.441,0.99465,-0.099151,-0.028822
-1.3261,0.082785,12.419,0.94704,0.04182,0.31839
-1.3558,0.2643,12.773,0.96521,-0.2449,-0.091661
-1.3563,0.19555,12.87,0.98952,-0.13249,-0.057386
-1.4924,0.1584,13.171,0.9148,-0.21593,0.34135
-1.4549,0.27841,13.375,0.8461,-0.46329,0.26359
-1.5542,0.26101,13.617,0.99988,0.011853,-0.009929
-1.6003,0.2436,13.641,0.99988,0.011853,-0.009929
-1.7423,0.1398,13.992,0.84768,-0.03879,0.52909
-1.8111,0.21511,14.137,0.84029,-0.33814,0.42377
-1.8591,0.2067,14.386,0.92995,-0.16115,0.33049
-1.8161,0.22742,14.578,0.85413,-0.51579,0.066561
-1.8277,0.20108,14.703,0.90543,-0.39164,0.16375
-1.9612,0.1601,14.97,0.99586,0.052169,0.074481
-2.0238,0.26552,15.183,0.97413,-0.19676,0.11119
-2.1021,0.24448,15.382,0.92404,0.082567,0.37327
-2.2233,0.2801,15.524,0.91592,0.17001,0.36358
-2.2192,0.25726,15.697,0.99441,0.086183,-0.060986
-2.3229,0.27172,15.983,0.97086,-0.025932,0.23822
-2.3311,0.36285,16.237,0.91397,-0.11958,0.38775
-2.4304,0.2762,16.343,0.91771,-0.39726,0.0012852
-2.3979,0.32923,16.516,0.919,-0.25825,0.29791
-2.453,0.33457,16.803,0.92847,-0.18201,0.32376
-2.5639,0.31698,16.995,0.89149,-0.27552,0.35962
-2.5918,0.29458,17.059,0.92935,-0.26728,0.25471
-2.731,0.30426,17.38,0.97354,-0.1894,0.12784
-2.6489,0.36473,17.494,0.97944,-0.15082,0.13398
-2.7419,0.4809,17.672,0.78561,-0.30206,0.53998
-2.759,0.32924,18.023,0.73416,-0.21658,0.6435
-2.9113,0.42073,18.195,0.94746,-0.17716,0.26635
-2.8756,0.29233,18.318,0.98746,-0.13041,-0.088916
-2.8684,0.40802,18.481,0.96937,-0.22942,-0.087681
-2.8259,0.34799,18.776,0.91423,-0.3013,0.27094
-2.9378,0.40338,18.899,0.84055,-0.15325,0.51961
-2.9208,0.35159,19.206,0.99639,0.061972,0.057941
-3.0373,0.40637,19.376,0.95566,0.17082,0.23984
-2.9227,0.36135,19.592,0.97465,0.22318,-0.015763
-3.0064,0.39141,19.807,0.97132,-0.089683,0.22022
-3.0181,0.40305,20.033,0.93923,-0.26792,-0.21462
-3.0165,0.18028,-0.047245,0.99644,-0.073804,-0.040815
-2.9917,0.18991,0.17335,0.96058,-0.27466,0.043092
-3.0591,0.18215,0.35792,0.96148,-0.23291,-0.14598
-2.9741,0.2834,0.62638,0.78724,0.13127,-0.60251
-2.8821,0.13033,0.82472,0.93214,-0.34903,-0.096407
-2.9962,0.17542,1.0462,0.99669,0.071733,-0.038132
-2.9057,0.21858,1.2663,0.98503,-0.17188,0.013127
-2.9385,0.24521,1.3213,0.9061,0.02526,0.4223
-2.9121,0.15372,1.6906,0.93104,0.13766,-0.33796
-2.7959,0.24182,1.7555,0.77083,0.16765,-0.61458
-2.7913,0.18774,2.0165,0.98959,-0.13086,-0.059873
-2.8156,0.22477,2.2422,0.91309,-0.11742,-0.39049
-2.7461,0.24564,2.4132,0.86322,-0.15224,-0.48132
-2.5537,0.1965,2.654,0.86176,-0.23926,0.44735
-2.7212,0.17244,2.8334,0.97211,0.19561,0.12938
-2.588,0.18384,2.9785,0.5974,0.082865,-0.79765
-2.5763,0.20504,3.3262,0.94866,0.24109,-0.20472
-2.4681,0.22428,3.4953,0.85079,0.38357,-0.3592
-2.3884,0.13742,3.7213,0.93343,-0.17813,-0.31141
-2.4061,0.090506,3.8521,0.96209,0.085395,-0.25902
-2.332,0.2333,4.0301,0.9531,-0.30258,0.0062922
-2.3498,0.12595,4.1931,0.9162,-0.064133,-0.39555
-2.2211,0.092448,4.3661,0.84935,0.045512,-0.52586
-2.1666,0.17445,4.7279,0.98602,0.023202,0.165
-2.1731,0.11421,4.9804,0.5744,-0.39067,-0.71934
-1.8755,0.11239,4.9741,0.92065,-0.038834,-0.38845
-1.8986,0.14253,5.2892,0.96931,-0.21746,-0.11466
-1.9181,0.0035802,5.4023,0.89873,-0.14695,-0.41315
-1.7393,0.13229,5.6139,0.92375,-0.37704,-0.067305
-1.7388,0.12686,5.9202,0.99344,0.079949,0.081737
-1.7237,0.085625,6.056,0.99618,0.074596,0.045447
-1.62,0.096924,6.2432,0.94565,-0.060833,-0.31945
-1.5523,0.12141,6.4627,0.93702,-0.12095,-0.32766
-1.4877,0.19704,6.7582,0.96761,-0.21774,-0.12776
-1.4578,0.053344,6.9102,0.91629,0.30584,-0.25859
-1.5065,0.096385,7.0879,0.86835,0.4907,-0.071973
-1.3066,0.049431,7.3096,0.76427,-0.62473,-0.16003
-1.3597,0.1828,7.5055,0.77647,-0.24997,-0.57846
-1.2786,0.038636,7.7042,0.05819,-0.54272,-0.8379
-1.2362,0.062898,7.8894,0.9601,0.062882,-0.27249
-1.0823,0.1312,8.1256,0.88098,-0.045974,-0.47092
-1.1475,0.10452,8.3176,0.92592,-0.2273,-0.30168
-1.0857,0.082809,8.5305,0.98657,-0.13012,-0.098767
-1.0883,0.017045,8.8195,0.82628,0.42012,-0.37518
-1.0584,0.022137,8.9816,0.9642,-0.22157,0.14568
-0.91874,-0.034906,8.9996,0.2643,0.96075,0.084259
-1.0256,0.10753,9.2506,0.96541,-0.21507,-0.14741
-1.0708,0.043762,9.5232,0.87826,0.076031,0.47211
-1.0028,0.0039615,9.7154,0.82647,-0.51174,0.23468
-1.0588,0.007101,9.9478,0.95002,-0.18234,0.25341
-0.89895,0.12302,10.143,0.86066,0.31127,-0.40297
-1.0023,0.13049,10.3,0.28647,-0.34916,0.8922
-1.0865,-0.039037,10.512,0.15244,-0.17607,0.9725
-0.95947,0.021729,10.626,0.85782,0.5137,0.015836
-1.1214,0.073512,10.943,0.76438,0.11181,0.63499
-1.0988,0.015196,11.093,0.95681,-0.2447,-0.15694
-1.0281,0.050207,11.341,0.94889,0.25093,-0.19142
-1.1747,0.061366,11.462,0.7925,-0.47389,0.38388
-1.1642,0.15497,11.732,0.91021,-0.16977,0.37776
-1.2721,0.10396,11.896,0.91362,-0.31145,0.26132
-1.157,0.074932,12.124,0.87214,-0.48208,0.083437
-1.2645,0.072801,12.255,0.92176,0.19112,0.33738
-1.2597,0.08149,12.404,0.94704,0.04182,0.31839
-1.3542,0.016921,12.722,0.8877,0.14245,0.43783
-1.47,0.066987,12.97,0.94918,-0.17934,0.25865
-1.4441,0.056956,13.132,0.97585,0.17232,0.13426
-1.4941,0.033584,13.263,0.98759,-0.11183,0.11026
-1.5023,0.05082,13.579,0.94821,0.31725,-0.015759
-1.5759,0.1198,13.661,0.95861,0.2303,0.1674
-1.6168,0.23664,13.967,0.83929,-0.3671,0.40105
-1.732,0.14124,14.152,0.95509,0.28906,0.065121
-1.76,0.064387,14.349,0.87221,0.16885,0.45906
-1.9102,0.10536,14.508,0.91408,-0.1237,0.3862
-1.9386,0.19817,14.7,0.75835,-0.60205,0.24988
-2.0425,0.10603,14.85,0.98232,-0.06828,0.17429
-2.0565,0.07655,15.152,0.93462,-0.1301,0.33099
-2.1006,0.072358,15.344,0.92651,-0.21675,0.30755
-2.1495,0.14186,15.611,0.98851,0.15057,-0.012951
-2.1845,0.13185,15.796,0.8871,0.04664,0.45921
-2.3233,0.26918,15.92,0.92102,0.0022168,0.38951
-2.3118,0.16099,16.119,0.99988,-8.2982e-05,0.015181
-2.4168,0.16529,16.399,0.96958,-0.038827,0.24169
-2.4116,0.054301,16.556,0.93594,-0.34224,0.083043
-2.547,0.060205,16.742,0.96921,-0.020523,0.24539
-2.5488,0.15496,16.929,0.92331,-0.099773,0.37086
-2.6299,0.23388,17.265,0.89488,-0.08542,0.43805
-2.7131,0.19822,17.378,0.97545,-0.17523,0.1334
-2.7228,0.18311,17.649,0.96812,-0.2503,-0.0094581
-2.7843,0.093802,17.741,0.99022,0.080144,0.11422
-2.7882,0.21809,17.993,0.94838,-0.20125,0.2451
-2.901,0.18447,18.095,0.948,-0.052289,0.31394
-2.9076,0.090753,18.383,0.9863,0.144,0.080462
-2.9062,0.19267,18.606,0.92231,-0.33589,0.19111
-2.9093,0.2108,18.775,0.97831,-0.022981,0.20588
-2.9621,0.23227,18.969,0.93905,-0.29771,0.17189
-2.9766,0.24595,19.174,0.99044,0.13198,0.04003
-2.9532,0.29877,19.416,0.94241,0.31731,0.10571
-2.9772,0.18085,19.615,0.93606,-0.32307,-0.13934
-3.0458,0.12985,19.711,0.99754,0.055571,0.042832
-3.0169,0.23543,19.903,0.99772,0.064213,0.020555
-3.032,0.02287,-0.13454,0.98626,-0.14904,0.07121
-3.0716,-0.031701,0.21674,0.99102,0.093607,0.095473
-2.9698,0.07479,0.5774,0.93499,0.062024,-0.34922
-2.9916,-0.0085299,0.52177,0.95659,0.0097383,-0.29128
-2.9738,-0.039653,0.8422,0.99843,-0.054241,0.013632
-2.9399,-0.0024236,0.97646,0.99053,-0.091173,-0.10264
-2.8571,-0.016047,1.1516,0.93997,0.069629,-0.33409
-2.9575,0.10493,1.4035,0.93076,0.36452,0.028578
-2.8714,0.039404,1.6212,0.92833,0.084365,-0.36206
-2.8327,-0.072126,1.7748,0.92033,0.19137,0.34113
-2.7943,-0.058587,2.0679,0.84886,-0.013749,-0.52843
-2.8059,0.026266,2.2367,0.94749,0.093744,-0.30574
-2.6653,0.13924,2.373,0.8817,-0.25132,-0.3993
-2.5765,-0.013075,2.5322,0.88639,-0.3465,-0.307
-2.4895,-0.0020232,2.8859,0.85586,0.19395,-0.47946
-2.5583,-0.015727,2.9601,0.85586,0.19395,-0.47946
-2.4435,0.12558,3.2875,0.94866,0.24109,-0.20472
-2.4597,0.012969,3.3745,0.95802,-0.14125,-0.2495
-2.4483,-0.071321,3.5095,0.8455,0.45384,-0.28136
-2.3409,-0.061654,3.8852,0.96037,0.2178,-0.17392
-2.3322,0.035495,4.1126,0.97159,0.043693,-0.23259
-2.2725,-0.057213,4.1993,0.80322,0.34146,-0.4881
-2.1625,0.023212,4.4226,0.80299,-0.23703,-0.54684
-2.0611,-0.028521,4.603,0.89508,-0.085287,-0.43768
-1.9719,-0.052371,4.8237,0.89476,-0.44606,0.020767
-1.9472,0.034305,5.0183,0.91306,-0.18578,-0.36306
-1.9445,-0.034333,5.2528,0.982,-0.16738,-0.087513
-1.7799,-0.0031124,5.5038,0.82274,-0.54366,-0.16594
-1.8536,0.020155,5.683,0.98002,0.0791,0.18249
-1.7235,0.011204,5.8626,0.99185,0.11658,0.051479
-1.7157,-0.013072,6.0361,0.96429,0.23611,0.11998
-1.6355,-0.0070862,6.3518,0.97096,-0.09463,-0.21975
-1.526,-0.066616,6.4123,0.65274,0.073294,-0.75403
-1.5446,0.020635,6.6261,0.95579,-0.19582,-0.21935
-1.3261,-0.066238,6.887,0.83922,0.26749,-0.47345
-1.394,0.056086,7.0614,0.8001,-0.59056,-0.10528
-1.3987,0.056035,7.2287,0.79481,-0.39807,-0.45806
-1.3924,0.010353,7.4276,0.98523,0.12285,-0.11931
-1.1535,-0.0065793,7.6932,0.54337,0.12446,0.83021
-1.2949,-0.082389,7.7711,0.9771,0.11275,-0.18043
-1.1819,-0.018498,8.061,0.92033,-0.34906,0.17649
-1.1236,-0.01384,8.2768,0.99968,0.019171,-0.016733
-1.091,-0.015582,8.4205,0.96676,-0.14026,-0.21379
-1.0552,-0.0044314,8.6843,0.9426,0.30768,0.12977
-1.0233,-0.013005,8.8715,0.50776,0.80953,-0.29471
-1.0405,-0.038144,9.0811,0.82972,-0.05167,-0.55578
-1.0603,-0.037201,9.2156,0.95052,0.30964,0.025129
-1.0868,-0.075351,9.4757,0.87622,0.34767,-0.33371
-1.0743,0.018019,9.6605,0.94189,-0.22467,-0.24972
-0.98967,0.065438,9.8537,0.97829,-0.19147,0.079305
-0.92162,0.019596,10.076,0.77468,-0.1466,-0.61513
-1.0063,0.05204,10.342,0.42601,-0.89744,-0.11451
-0.97384,0.016789,10.569,0.11259,0.037083,-0.99295
-1.0945,0.056016,10.613,0.26598,0.7518,-0.60337
-0.99666,-0.0052272,10.953,0.8577,0.50628,-0.089649
-1.1532,-0.075497,11.001,0.054655,0.99636,0.065377
-1.1329,-0.0056857,11.3,0.98448,-0.018753,0.1745
-1.0035,-0.084003,11.497,0.64953,-0.67865,0.34283
-1.1376,0.053171,11.684,0.77685,-0.072037,0.62555
-1.2733,0.032104,11.981,0.91476,-0.1997,-0.3512
-1.1908,-0.0616,12.16,0.84696,-0.1552,0.5085
-1.2464,0.037457,12.332,0.94221,0.19605,0.27168
-1.2287,-0.032657,12.59,0.94743,0.21336,0.23843
-1.3536,-0.086046,12.807,0.87095,0.04306,0.48948
-1.4174,-0.0033787,13.047,0.99177,-0.10435,0.074197
-1.4786,-0.023035,13.098,0.99177,-0.10435,0.074197
-1.5038,-0.021649,13.367,0.9659,0.22677,0.12497
-1.5282,0.013317,13.56,0.96487,0.25843,-0.047329
-1.5132,0.032106,13.789,0.94898,-0.15158,0.2765
-1.7247,-0.038616,14.025,0.72405,0.27017,0.63464
-1.6891,-0.068087,14.113,0.65994,-0.12238,0.74128
-1.7872,-0.015708,14.313,0.94281,0.13138,0.30636
-1.9132,-0.047684,14.582,0.95531,0.26,0.14068
-1.9408,-0.059861,14.781,0.8814,0.35825,0.30788
-1.991,0.017142,15.014,0.99283,-0.111,0.044428
-2.0351,-0.068256,14.952,0.91776,0.34022,0.20487
-2.1988,-0.028205,15.335,0.92651,-0.21675,0.30755
-2.1705,-0.0038698,15.485,0.99996,-0.0088339,0.00016023
-2.2476,-0.070898,15.786,0.75497,-0.23904,0.61064
-2.3269,0.077156,15.968,0.90682,0.25003,0.33935
-2.331,0.04319,16.179,0.96165,0.17585,0.21051
-2.4719,-0.10269,16.411,0.80613,-0.36194,0.46814
-2.4841,-0.042992,16.553,0.88327,-0.40858,0.22998
-2.5107,-0.071112,16.702,0.99915,0.013868,0.038887
-2.5126,-0.07396,16.885,0.99486,0.10094,-0.007763
-2.6753,0.018255,17.074,0.84833,0.36217,0.38623
-2.7173,0.0056846,17.349,0.98682,0.022304,0.16031
-2.7318,0.023247,17.591,0.98385,-0.1672,0.063837
-2.6927,0.05742,17.783,0.99022,0.080144,0.11422
-2.8071,0.040221,18.046,0.8635,0.2824,0.41786
-2.8313,-0.038053,18.159,0.92237,0.33775,0.18752
-2.8261,0.035672,18.444,0.95046,0.096644,0.29543
-2.9565,-0.032329,18.628,0.97556,0.14787,0.16255
-2.8866,-0.03654,18.817,0.9844,0.073992,0.15961
-3.007,-0.026872,18.893,0.97935,0.085289,0.18329
-2.9323,-0.01239,19.218,0.9998,-0.019369,0.0045879
-2.9889,-0.043219,19.414,0.97505,-0.096704,0.19982
-3.0535,0.0056283,19.699,0.98918,0.072824,0.12733
-2.9664,-0.018848,19.789,0.98918,0.072824,0.12733
-2.9479,-0.052858,20.087,0.99186,-0.10877,-0.066142
-2.9906,-0.090286,0.0050183,0.98479,0.13748,0.1062
-2.9708,-0.1906,0.14661,0.96887,0.14264,0.20235
-3.006,-0.14349,0.45551,0.96239,-0.065315,-0.26369
-2.982,-0.29798,0.60703,0.96215,-0.0076779,-0.27241
-2.8992,-0.22048,0.74891,0.99271,0.12048,-0.0036529
-2.9819,-0.19135,0.99498,0.98471,0.084826,-0.15217
-2.9236,-0.17226,1.1788,0.99067,-0.079207,-0.11087
-2.8963,-0.20302,1.4373,0.94951,0.14352,-0.27899
-2.8048,-0.16005,1.6773,0.99908,0.039442,-0.016891
-2.894,-0.28821,1.8406,0.90595,0.22861,0.35637
-2.8911,-0.22433,2.0574,0.87175,0.025663,-0.48927
-2.6465,-0.17299,2.2585,0.97666,0.21044,-0.043067
-2.7931,-0.18382,2.3929,0.9725,0.1872,-0.13859
-2.6614,-0.1537,2.6158,0.92792,-0.27213,-0.25476
-2.6416,-0.1329,2.7808,0.90111,-0.034106,-0.43225
-2.4897,-0.1875,3.1038,0.97907,0.090976,0.18206
-2.5671,-0.15139,3.2554,0.79385,-0.58439,0.16818
-2.5636,-0.10021,3.4935,0.8455,0.45384,-0.28136
-2.4575,-0.092142,3.6196,0.90837,-0.1787,-0.37807
-2.3106,-0.11674,3.8478,0.84804,0.10813,-0.51879
-2.2911,-0.17598,3.9113,0.84305,-0.094851,-0.52941
-2.1451,-0.12954,4.2164,0.99927,-0.025358,-0.028511
-2.163,-0.14185,4.4862,0.8186,0.16527,-0.55007
-2.0609,-0.16597,4.6522,0.89399,-0.11008,-0.43435
-2.0053,-0.097734,4.8238,0.93237,-0.36149,-0.0047072
-2.0171,-0.10876,4.9952,0.98067,0.19558,0.0055853
-1.9047,-0.027868,5.2435,0.982,-0.16738,-0.087513
-1.8673,-0.22852,5.4855,0.83357,0.10383,-0.54257
-1.7612,-0.12816,5.6732,0.95614,0.29286,-0.0045222
-1.6584,-0.1365,5.9229,0.96367,0.26167,0.053563
-1.7491,-0.043763,6.0803,0.88362,0.32058,-0.34123
-1.6016,-0.021809,6.2243,0.88856,-0.053051,-0.45569
-1.6207,-0.10108,6.4534,0.52467,-0.069865,-0.84843
-1.5093,0.016167,6.6834,0.96559,-0.11214,-0.23463
-1.4985,-0.081733,6.8655,0.94039,0.12207,-0.31745
-1.4243,-0.03994,7.0497,0.89011,0.29218,0.34975
-1.426,-0.0093413,7.2512,0.69618,-0.71602,-0.051518
-1.2992,-0.080943,7.516,0.79258,0.32271,-0.51738
-1.2417,-0.11061,7.5731,0.39105,0.53528,-0.7487
-1.1618,-0.054233,7.9034,0.97291,0.17267,0.15374
-1.222,-0.066268,8.02,0.93634,-0.22191,0.27209
-1.0843,-0.056586,8.2155,0.92865,0.22715,-0.29328
-1.1032,-0.098826,8.4596,0.27396,-0.17759,-0.9452
-1.1067,-0.059337,8.7387,0.9692,0.1124,0.21913
-1.0372,-0.056046,8.9356,0.38543,0.91892,-0.083827
-0.94932,-0.067629,9.1571,0.90933,0.39731,-0.12357
-0.97245,-0.13946,9.3064,0.77485,0.58656,-0.23569
-0.94408,-0.05986,9.4917,0.87622,0.34767,-0.33371
-0.99598,-0.10619,9.625,0.86955,0.21624,0.44397
-0.99989,0.013125,9.9934,0.87966,0.37819,-0.28838
-0.99679,-0.077933,10.12,0.76911,-0.43005,-0.47278
-1.1344,0.0061432,10.283,0.3533,-0.5854,0.72971
-0.95978,-0.11274,10.595,0.9277,-0.29645,0.22693
-0.98251,0.063346,10.751,0.93699,0.26003,-0.23333
-1.019,-0.02689,10.901,0.80663,0.050708,0.58887
-1.031,-0.010649,11.086,0.54347,-0.83659,-0.068955
-1.0733,-0.12398,11.198,0.87498,-0.018505,0.4838
-1.0774,-0.13022,11.531,0.64953,-0.67865,0.34283
-1.0973,-0.12179,11.645,0.7772,0.40796,0.47909
-1.2771,-0.079263,11.89,0.97319,0.21753,0.074683
-1.1547,-0.14523,12.06,0.96873,0.19552,-0.15276
-1.2545,0.0124,12.381,0.94298,-0.24043,0.2302
-1.2811,-0.046876,12.639,0.93166,0.056383,0.35892
-1.3099,-0.11158,12.742,0.83053,0.18393,0.52573
-1.3758,0.039129,12.866,0.94834,-0.025572,0.31621
-1.5157,-0.10261,13.158,0.98239,-0.0085287,0.18666
-1.5213,-0.084965,13.409,0.98441,0.05431,0.16727
-1.5162,-0.037126,13.584,0.90747,-0.21849,0.35882
-1.6236,-0.10094,13.709,0.95283,-0.30348,-0.0045678
-1.612,-0.14505,13.97,0.53506,0.6382,-0.55354
-1.7657,-0.11353,14.064,0.53506,0.6382,-0.55354
-1.7741,-0.1787,14.364,0.80555,0.1304,0.578
-1.9033,-0.19083,14.565,0.94857,0.3165,0.0056549
-1.8932,-0.13997,14.757,0.93015,0.36292,0.055826
-2.0142,-0.072425,15.018,0.82802,0.19628,0.52522
-2.0375,-0.1917,15.151,0.8576,0.12531,0.49882
-2.1296,-0.12201,15.288,0.87165,-0.082338,0.48317
-2.1317,-0.13037,15.652,0.84179,0.227,0.48976
-2.3056,-0.27513,15.778,0.96202,0.20573,0.1794
-2.2875,-0.17816,15.832,0.8761,-0.032634,0.48103
-2.2676,-0.22564,16.144,0.94928,0.031838,0.31282
-2.4885,-0.19989,16.465,0.96271,0.043627,0.26701
-2.5376,-0.13635,16.565,0.98976,0.014599,0.14199
-2.5272,-0.1854,16.757,0.9807,-0.19505,-0.013359
-2.5113,-0.19103,17.098,0.78951,-0.61344,-0.01906
-2.5433,-0.20828,17.173,0.92693,0.35488,-0.12192
-2.6343,-0.17372,17.292,0.76074,0.00044796,0.64906
-2.7904,-0.23888,17.581,0.98068,0.16921,0.098119
-2.7345,-0.15367,17.822,0.97493,-0.22195,-0.015778
-2.7547,-0.22013,17.917,0.99528,0.039961,0.088394
-2.7739,-0.18289,18.167,0.98702,0.050137,0.15255
-2.8354,-0.11235,18.371,0.96239,0.25349,0.097687
-2.8378,-0.16807,18.475,0.88088,0.33413,0.33528
-2.8655,-0.19335,18.781,0.92519,0.36679,0.097415
-3.0017,-0.14828,19.092,0.99668,0.031765,-0.074926
-2.9678,-0.24633,19.146,0.9987,0.029322,0.041658
-2.9804,-0.26913,19.354,0.99113,0.1308,-0.023598
-2.9793,-0.090706,19.574,0.97461,0.21704,0.054989
-3.0142,-0.13754,19.831,0.99412,-0.10461,0.028125
-3.0769,-0.20584,19.965,0.95611,-0.28881,-0.04937
-2.9841,-0.33132,-0.010077,0.98904,0.039042,0.14236
-2.9933,-0.42567,0.24366,0.99323,0.092186,0.070653
-3.0524,-0.29729,0.38691,0.95967,0.21299,-0.1835
-2.9318,-0.41311,0.59282,0.99577,-0.019342,-0.089821
-2.9204,-0.34998,0.79797,0.97854,-0.065405,-0.19539
-2.893,-0.31475,1.0646,0.9748,0.20997,-0.075367
-2.905,-0.33182,1.1209,0.95843,0.12079,-0.25849
-2.9365,-0.2674,1.4388,0.95576,0.019575,-0.2935
-2.7829,-0.27328,1.5955,0.84678,0.5243,-0.089852
-2.8926,-0.30101,1.9523,0.5032,0.82399,-0.26046
-2.7755,-0.24827,2.0498,0.87175,0.025663,-0.48927
-2.7319,-0.31513,2.175,0.90742,0.22979,-0.35183
-2.7118,-0.35122,2.4419,0.94984,0.30377,-0.07431
-2.6798,-0.3499,2.6612,0.93772,-0.11278,-0.32859
-2.5607,-0.38568,2.8514,0.90387,0.02853,-0.42685
-2.5258,-0.34697,3.0139,0.98164,-0.13064,-0.139
-2.6166,-0.32856,3.1392,0.94752,0.30097,-0.10783
-2.3474,-0.30448,3.4456,0.63524,0.23432,-0.73591
-2.3093,-0.37165,3.6439,0.99916,0.039312,-0.011941
-2.3462,-0.26056,3.8835,0.84305,-0.094851,-0.52941
-2.2514,-0.31242,4.0012,0.85155,-0.21941,-0.47616
-2.2155,-0.21051,4.2505,0.98684,0.13726,-0.085432
-2.2406,-0.19296,4.4194,0.97201,0.20226,-0.11952
-2.0012,-0.16762,4.7431,0.92889,-0.1181,-0.35101
-2.1274,-0.3092,4.8274,0.90678,-0.21743,-0.36121
-1.9952,-0.22667,5.1211,0.95524,0.28481,-0.08001
-1.9576,-0.21151,5.2956,0.94959,-0.014826,-0.31315
-1.8985,-0.017348,5.4197,0.89873,-0.14695,-0.41315
-1.6864,-0.20768,5.6709,0.98299,-0.18242,0.021207
-1.6964,-0.17853,5.8225,0.94916,0.021976,-0.31404
-1.6873,-0.1638,6.0671,0.72561,0.5953,-0.34513
-1.591,-0.25846,6.2857,0.7544,0.57051,-0.32465
-1.4968,-0.25473,6.4458,0.70965,0.54387,-0.44789
-1.4659,-0.19612,6.5171,0.5087,0.25764,-0.82149
-1.4712,-0.18808,6.8105,0.83452,0.45071,-0.31693
-1.407,-0.18601,7.0444,0.90274,0.40718,0.13881
-1.2498,-0.12806,7.3175,0.93648,0.26331,-0.23167
-1.2511,-0.20551,7.4982,0.85121,-0.044149,-0.52296
-1.1036,-0.01704,7.6804,0.29931,0.21858,0.92878
-1.1787,-0.19942,7.9102,0.91963,0.10786,0.37768
-1.2143,-0.075783,8.0553,0.93634,-0.22191,0.27209
-1.0646,-0.21366,8.1994,0.074079,0.069264,0.99484
-1.1822,-0.19825,8.5166,0.94923,0.3121,-0.039362
-1.0262,-0.15059,8.7353,0.90863,0.40973,-0.080686
-0.97725,-0.031865,8.8856,0.38543,0.91892,-0.083827
-1.0326,-0.16162,9.1156,0.87482,0.11728,-0.47003
-0.96136,-0.11474,9.2979,0.77485,0.58656,-0.23569
-0.97019,-0.12367,9.4356,0.73387,-0.58776,0.34055
-1.0929,-0.083418,9.7297,0.9349,0.27356,0.22612
-0.98873,-0.042991,9.9232,0.88125,-0.31431,-0.35299
-0.97664,-0.1028,10.181,0.90514,-0.38179,-0.18697
-0.91567,-0.12404,10.424,0.98294,-0.18393,0.00059485
-1.0246,-0.12573,10.499,0.24357,-0.25737,0.93511
-1.0304,-0.19055,10.782,0.94152,0.13981,-0.30658
-1.0475,-0.13573,10.862,0.9354,0.096898,-0.34004
-1.0772,-0.24683,11.135,0.97332,0.22833,0.022872
-1.1117,-0.036888,11.239,0.94431,-0.31477,0.095913
-1.131,-0.14521,11.573,0.80469,-0.082771,0.5879
-1.2178,-0.14716,11.764,0.78036,0.50095,0.37427
-1.2647,-0.14817,11.944,0.77716,0.55038,-0.30514
-1.1646,-0.29202,12.109,0.65964,0.14767,0.73694
-1.3119,-0.087339,12.31,0.95034,0.10888,0.29155
-1.2508,-0.15635,12.49,0.86392,-0.34824,0.36382
-1.1337,-0.17819,12.717,0.15973,0.51951,0.8394
-1.4417,-0.14551,12.919,0.92759,-0.11904,0.35412
-1.4577,-0.15885,13.142,0.9927,-0.11711,-0.028977
-1.4485,-0.14842,13.32,0.98026,0.074832,0.183
-1.4976,-0.2547,13.397,0.91659,-0.10498,0.38581
-1.6395,-0.26269,13.634,0.95655,-0.093797,0.27608
-1.7432,-0.22581,13.881,0.50072,-0.68379,0.53077
-1.6588,-0.22214,14.048,0.95812,0.24151,-0.15391
-1.7181,-0.23671,14.338,0.83269,0.16128,0.52973
-1.8168,-0.25807,14.65,0.97177,0.053508,0.22979
-1.8691,-0.26965,14.752,0.97271,0.10024,0.20924
-1.9338,-0.23095,14.991,0.90808,0.14765,0.39192
-2.0779,-0.2305,15.12,0.8576,0.12531,0.49882
-2.1309,-0.32536,15.306,0.95092,0.22629,0.21106
-2.0415,-0.26373,15.514,0.98162,0.1821,-0.05714
-2.2102,-0.33713,15.719,0.93312,0.35955,-0.0011093
-2.257,-0.28791,15.927,0.91029,0.40332,0.09327
-2.2944,-0.32338,16.162,0.92352,-0.27641,0.26591
-2.4535,-0.25485,16.394,0.91232,0.19848,0.35816
-2.4787,-0.31377,16.536,0.92191,0.1869,0.33934
-2.6143,-0.31856,16.757,0.92593,0.051357,0.3742
-2.6488,-0.27003,16.994,0.91303,0.32178,-0.25068
-2.5672,-0.25514,17.208,0.89175,-0.45158,0.029358
-2.6665,-0.43552,17.289,0.86591,-0.049976,0.4977
-2.6404,-0.33283,17.594,0.97411,0.17724,0.14036
-2.7527,-0.31713,17.676,0.97411,0.17724,0.14036
-2.7875,-0.32224,18.013,0.99915,-0.037708,-0.016616
-2.7235,-0.43301,18.239,0.99262,-0.073955,0.096073
-2.8191,-0.39434,18.299,0.9757,0.011208,0.21883
-2.8151,-0.34034,18.653,0.98866,-0.14994,-0.0082286
-2.8328,-0.3768,18.809,0.963,-0.18006,0.20053
-2.9364,-0.45486,19.06,0.96059,0.15086,-0.23347
-2.938,-0.37772,19.089,0.92072,0.21794,-0.32368
-2.9312,-0.37709,19.377,0.95339,0.29304,0.071978
-2.956,-0.37156,19.66,0.96551,0.22399,0.13276
-3.0442,-0.27797,19.769,0.95661,0.0051115,0.29133
-3.0443,-0.37045,19.937,0.94639,0.22859,0.22825
-2.9417,-0.55324,-0.016521,0.93643,0.27436,0.21868
-3.0193,-0.47743,0.21641,0.97092,0.2355,0.04294
-2.9458,-0.50515,0.40335,0.94582,0.20988,-0.24772
-2.9486,-0.50814,0.68887,0.97875,0.19643,-0.05881
-2.9188,-0.57274,0.87256,0.97452,0.21701,-0.056644
-2.902,-0.62188,1.041,0.95197,0.26418,-0.15478
-2.8804,-0.50505,1.195,0.98942,0.13291,-0.058203
-2.8704,-0.5767,1.4182,0.94429,0.32627,0.043248
-2.8689,-0.6262,1.5404,0.94354,0.3311,0.010654
-2.729,-0.41807,1.7695,0.90967,0.12541,0.39594
-2.7772,-0.53958,2.0382,0.90546,0.19925,-0.37475
-2.7301,-0.46177,2.2228,0.91958,0.25626,-0.29784
-2.6292,-0.49195,2.3758,0.99187,0.12334,0.031427
-2.7003,-0.52942,2.6239,0.96419,0.14249,-0.2237
-2.6218,-0.45563,2.8491,0.90158,0.055818,-0.42899
-2.4875,-0.45796,3.0636,0.73516,0.67769,0.016572
-2.4195,-0.53279,3.2046,0.91814,0.38184,0.10594
-2.5243,-0.45284,3.4384,0.9522,0.15964,-0.26046
-2.3274,-0.4386,3.7198,0.98722,-0.075542,0.1403
-2.3219,-0.57354,3.7271,0.94096,0.0071744,-0.33845
-2.2652,-0.34178,4.0298,0.88118,-0.12735,-0.4553
-2.196,-0.34704,4.1837,0.95867,-0.11927,-0.2583
-2.0676,-0.35072,4.4324,0.81534,0.50654,-0.2804
-2.0609,-0.27465,4.6991,0.90678,-0.21743,-0.36121
-1.9825,-0.38369,4.849,0.7435,0.33252,-0.58021
-1.8772,-0.31382,5.0147,0.96388,0.20749,-0.16701
-1.9035,-0.35296,5.2626,0.94252,0.31775,0.10341
-1.7411,-0.37174,5.515,0.93805,0.32466,-0.12107
-1.7969,-0.30037,5.7111,0.86089,-0.36889,0.3504
-1.8536,-0.32166,5.796,0.89564,-0.26906,-0.35416
-1.6409,-0.41405,6.0158,0.8493,0.10084,-0.51819
-1.5688,-0.27735,6.2795,0.88163,0.13076,-0.45346
-1.5526,-0.28632,6.4418,0.70965,0.54387,-0.44789
-1.6158,-0.28711,6.6358,0.96991,-0.22827,-0.084605
-1.3231,-0.31582,6.8647,0.86736,0.46529,-0.17659
-1.3317,-0.22544,7.0176,0.98071,0.088252,0.17441
-1.3546,-0.33344,7.3263,0.10765,0.98449,-0.13851
-1.3229,-0.28301,7.485,0.90328,-0.27324,-0.33078
-1.1397,-0.2319,7.7419,0.98997,0.04955,-0.13231
-1.1892,-0.1906,7.9024,0.91963,0.10786,0.37768
-1.2346,-0.1759,8.0684,0.92479,-0.206,0.31988
-1.1298,-0.17536,8.2267,0.074079,0.069264,0.99484
-1.1386,-0.18822,8.5327,0.94923,0.3121,-0.039362
-1.0949,-0.19993,8.7137,0.17517,-0.11998,0.9772
-1.0206,-0.24769,8.8473,0.99905,0.022196,-0.03738
-0.98351,-0.15708,9.0899,0.87482,0.11728,-0.47003
-1.0543,-0.097492,9.2906,0.82965,0.48942,-0.2686
-1.0363,-0.21262,9.4564,0.81831,-0.06246,0.57137
-1.0111,-0.16068,9.7123,0.83172,0.11256,0.54367
-1.0545,-0.14789,9.9148,0.86266,0.29068,-0.41391
-1.0223,-0.20119,10.131,0.98902,0.11412,-0.093876
-1.0035,-0.20498,10.312,0.97698,0.14225,-0.15896
-0.97178,-0.17463,10.523,0.89239,-0.3926,0.22248
-1.0653,-0.27484,10.761,0.84608,0.51135,-0.15055
-0.96776,-0.24378,10.944,0.91274,0.40046,0.080847
-1.0027,-0.22034,11.085,0.89379,-0.39632,0.2099
-1.0637,-0.21714,11.371,0.93784,-0.18725,0.29221
-1.0612,-0.16524,11.546,0.80469,-0.082771,0.5879
-1.1183,-0.25411,11.705,0.97481,0.16454,0.15057
-1.153,-0.24077,11.999,0.99804,-0.018952,-0.059704
-1.2566,-0.27462,12.13,0.532,-0.78474,-0.31804
-1.2214,-0.22118,12.337,0.9404,0.21701,0.26185
-1.3229,-0.2856,12.498,0.95685,-0.15048,0.2486
-1.3027,-0.19946,12.717,0.45758,0.34141,0.82101
-1.4233,-0.26419,12.942,0.88439,0.39829,0.24335
-1.4629,-0.19989,13.187,0.99601,0.077512,0.044244
-1.5002,-0.39539,13.384,0.94906,0.27393,-0.15574
-1.58,-0.30693,13.557,0.79663,0.52015,0.30793
-1.5786,-0.29116,13.734,0.99055,0.042462,0.1304
-1.7689,-0.3401,13.92,0.62169,-0.272,-0.73451
-1.6352,-0.33151,14.199,0.98844,0.037269,0.14694
-1.7766,-0.33526,14.423,0.83682,0.13482,0.53061
-1.8156,-0.37467,14.524,0.92982,0.16185,0.33052
-1.9204,-0.3962,14.746,0.91116,-0.09505,0.40093
-1.9564,-0.43591,14.948,0.99036,-0.0025102,0.1385
-1.9571,-0.44948,15.166,0.94758,0.21962,0.23207
-2.0597,-0.34952,15.366,0.96458,-0.013107,0.26347
-2.106,-0.37462,15.524,0.91927,0.31534,0.23559
-2.1839,-0.43744,15.806,0.93574,0.32983,0.12488
-2.2285,-0.41402,15.979,0.97423,0.10106,0.20167
-2.3961,-0.54319,16.176,0.75434,0.11262,0.64675
-2.3723,-0.44086,16.325,0.92866,0.229,0.29179
-2.4646,-0.44066,16.552,0.91042,0.29385,0.29118
-2.4937,-0.50725,16.773,0.86439,0.49867,0.064514
-2.5027,-0.4575,17.012,0.86918,0.35273,0.34658
-2.6047,-0.54034,17.217,0.90598,-0.17037,0.38752
-2.6235,-0.56167,17.368,0.98329,-0.11753,0.139
-2.6543,-0.47222,17.593,0.94262,0.21532,0.25516
-2.7206,-0.54874,17.766,0.96231,-0.0114,-0.27171
-2.7812,-0.53189,18.048,0.91443,0.088111,0.39503
-2.7994,-0.58065,18.2,0.95167,-0.18298,0.24668
-2.8414,-0.55292,18.341,0.9425,0.0059221,0.33416
-2.9009,-0.60689,18.573,0.80247,0.57266,0.16762
-2.9127,-0.52359,18.709,0.97871,0.031147,0.20288
-2.9207,-0.61178,19.03,0.96349,0.098913,-0.24882
-2.8497,-0.59875,19.219,0.99196,0.1265,0.0031728
-2.9324,-0.51847,19.419,0.97679,0.21115,0.03604
-2.9886,-0.51661,19.681,0.94229,0.29102,0.16551
-2.9449,-0.52574,19.817,0.94922,0.26924,0.16275
-2.9738,-0.58781,19.986,0.88095,0.46981,-0.056609
-2.86,-0.74962,0.04609,0.96871,0.24552,0.036215
-2.9576,-0.71155,0.29523,0.96214,0.27243,-0.0080547
-2.8965,-0.65528,0.36253,0.96645,0.095304,-0.23853
-2.8986,-0.8165,0.5635,0.98204,0.064374,-0.17737
-2.8583,-0.71614,0.75044,0.90914,0.34978,-0.22608
-2.8344,-0.69246,0.98095,0.96428,0.2313,-0.12907
-2.8074,-0.66162,1.2043,0.957,0.28504,-0.05397
